497147.844 5419336.92 276.15425 75
497148.3 5419336.799 276.22025 74
497148.31 5419336.379 276.52025 70
497148.29 5419337.44 275.81025 1
497147.385 5419337.634 275.69425 55
497148.511 5419336.139 276.66025 80
497147.31 5419336.321 276.50025 85
497147.151 5419336.62 276.31025 71
497148.29 5419337.009 276.11025 46
497146.548 5419336.44 276.37725 86
497147.141 5419337.27 275.94025 15
497148.321 5419335.95 276.73025 72
497146.512 5419335.98 276.70225 82
497148.48 5419337.469 275.89025 19
497148.48 5419337.7 275.76025 20
497148.48 5419337.91 275.60025 19
497147.141 5419337.02 276.00025 14
497147.349 5419337.151 275.97825 39
497147.131 5419337.469 275.77025 19
497148.521 5419336.037 276.71125 56
497148.29 5419337.241 276.02025 2
497147.16 5419335.98 276.71025 80
497147.773 5419335.977 276.74725 83
497147.3 5419336.969 276.10025 78
497147.31 5419335.87 276.74025 79
497146.58 5419336.884 276.13525 60
497148.557 5419336.509 276.39325 55
497147.151 5419336.401 276.44025 73
497147.281 5419337.861 275.53025 74
497147.131 5419337.7 275.64025 24
497147.809 5419336.457 276.46625 75
497147.16 5419335.77 276.86025 63
497148.501 5419336.349 276.51025 79
497147.311 5419336.67 276.29525 58
497147.141 5419336.83 276.17025 67
497147.12 5419337.901 275.49025 26
497146.031 5419332.69 276.68025 45
497144.632 5419333.253 276.68725 11
497146.361 5419333.429 277.39625 83
497146.18 5419332.799 277.37025 52
497146.031 5419332.651 277.22025 14
497146.18 5419333.071 277.38025 69
497159.17 5419334.62 277.99025 97
497158.12 5419333.679 278.56025 61
497158.643 5419334.67 277.92225 83
497159.17 5419334.839 277.86025 100
497158.11 5419333.889 278.43025 59
497159.201 5419333.781 278.52025 82
497157.941 5419334.321 278.15025 44
497158.081 5419334.06 278.24725 1
497157.961 5419333.71 278.55025 37
497158.1 5419334.52 278.02025 75
497159.021 5419333.94 278.42025 79
497159.031 5419333.531 278.68025 75
497159.7 5419333.869 278.47625 76
497157.92 5419334.929 277.74025 89
497158.091 5419334.73 277.90025 69
497159.285 5419334.66 277.94225 54
497157.93 5419334.73 277.88025 71
497157.951 5419334.111 278.28025 33
497157.97 5419333.509 278.69025 21
497158.99 5419334.75 277.87025 79
497159.247 5419334.179 278.24925 55
497159.18 5419334.41 278.12025 92
497159.001 5419334.549 278.03025 78
497159.011 5419334.139 278.27025 78
497159.735 5419334.345 278.20225 73
497159.011 5419334.339 278.15025 79
497158.99 5419334.96 277.74025 80
497159.201 5419333.571 278.67025 90
497159.209 5419333.697 278.57425 60
497158.607 5419334.203 278.21125 80
497157.951 5419333.92 278.43025 32
497158.091 5419334.94 277.75025 82
497157.941 5419334.54 278.06025 32
497159.191 5419333.991 278.39025 92
497159.021 5419333.73 278.56025 77
497158.571 5419333.736 278.51925 84
497158.115 5419334.538 278.02325 4
497158.11 5419334.099 278.30025 64
497158.039 5419333.565 278.62725 1
497159.191 5419334.19 278.24025 89
497159.772 5419334.812 277.88825 77
497158.1 5419334.31 278.16025 61
497155.91 5419333.929 278.32025 86
497156.06 5419333.58 278.54025 82
497156.92 5419333.83 278.40025 90
497156.891 5419334.639 277.88025 96
497156.04 5419334.42 277.99025 84
497156.957 5419333.872 278.38425 52
497156.92 5419333.629 278.54025 97
497156.05 5419334 278.27025 73
497156.996 5419334.338 278.06425 52
497156.269 5419334.611 277.88425 80
497155.678 5419333.673 278.48025 59
497156.91 5419334.031 278.28025 90
497156.031 5419334.849 277.73025 80
497155.91 5419334.129 278.19025 92
497155.755 5419334.639 277.84325 53
497156.05 5419334.21 278.14025 77
497155.92 5419333.719 278.45025 85
497156.891 5419334.849 277.76025 96
497157.081 5419333.91 278.40025 72
497157.091 5419333.69 278.50025 68
497156.91 5419334.25 278.18025 89
497157.071 5419334.31 278.08025 73
497156.201 5419333.703 278.46025 82
497157.071 5419334.531 277.99025 66
497156.235 5419334.168 278.17025 82
497155.714 5419334.146 278.16625 52
497155.901 5419334.339 278.05025 89
497157.032 5419334.81 277.78125 54
497157.081 5419334.111 278.24025 71
497156.04 5419334.629 277.85025 86
497157.06 5419334.741 277.84025 76
497157.421 5419334.089 278.28625 60
497157.387 5419333.623 278.58125 92
497156.06 5419333.781 278.39025 83
497157.458 5419334.56 277.99025 25
497156.901 5419334.45 278.02025 95
497155.891 5419334.54 277.94025 88
497155.92 5419333.52 278.58025 94
497155.891 5419334.759 277.81025 91
497160.23 5419333.509 278.74025 108
497160.021 5419335.111 277.72025 90
497160.05 5419334.08 278.39025 88
497160.201 5419334.549 278.07025 102
497160.021 5419334.91 277.87025 91
497160.04 5419334.491 278.10025 99
497160.06 5419333.679 278.64025 98
497160.191 5419334.991 277.83025 107
497160.031 5419334.7 278.01025 91
497160.458 5419334.804 277.91825 60
497160.211 5419334.349 278.21025 102
497160.191 5419334.77 277.94025 99
497160.385 5419333.867 278.51425 76
497160.211 5419334.139 278.36025 98
497160.04 5419334.29 278.25025 96
497160.22 5419333.719 278.62025 94
497160.05 5419333.879 278.51025 89
497160.22 5419333.92 278.47025 95
497160.42 5419334.344 278.22625 91
497159.04 5419333.139 278.96025 79
497157.98 5419333.099 278.93025 93
497157.964 5419332.602 279.22125 67
497158.17 5419331.589 279.10025 71
497157.99 5419332.901 279.06025 92
497158.439 5419331.541 279.11825 107
497158.001 5419332.491 279.29025 98
497158.001 5419332.299 279.43025 82
497159.05 5419332.929 279.07025 76
497157.99 5419332.69 279.16025 103
497158.131 5419333.469 278.69025 78
497159.23 5419332.741 279.17025 88
497158.151 5419332.629 279.17025 97
497158.141 5419333.06 278.94025 89
497159.175 5419333.237 278.83925 55
497158.16 5419332.25 279.50025 78
497159.081 5419331.741 279.17025 63
497159.23 5419332.54 279.31025 84
497158.447 5419331.94 279.34125 106
497159.091 5419331.42 278.98025 70
497159.561 5419331.605 279.14225 104
497159.087 5419331.876 279.29225 80
497157.912 5419331.302 278.96625 93
497159.211 5419333.361 278.80025 88
497158.002 5419333.088 278.92225 64
497159.22 5419332.95 279.06025 88
497158.021 5419331.71 279.17025 79
497159.571 5419332.003 279.37025 101
497158.141 5419332.849 279.08025 88
497158.011 5419332.049 279.40025 65
497159.137 5419332.754 279.17125 56
497157.97 5419333.299 278.78025 106
497159.24 5419332.349 279.46025 108
497159.078 5419331.469 279.03625 77
497159.097 5419332.276 279.51425 45
497159.591 5419332.441 279.39225 88
497157.92 5419331.717 279.23525 90
497158.151 5419332.429 279.32025 94
497159.22 5419333.16 278.93025 83
497159.071 5419332.349 279.48025 89
497159.06 5419332.73 279.17025 83
497158.16 5419331.929 279.32025 69
497159.626 5419332.92 279.09825 74
497159.261 5419331.389 278.95025 72
497158.538 5419333.287 278.78625 76
497157.926 5419332.116 279.52625 82
497159.24 5419332.06 279.39025 66
497159.06 5419332.531 279.32025 77
497158.5 5419332.812 279.12525 80
497159.04 5419333.339 278.82025 78
497158.18 5419331.25 278.86025 67
497158.464 5419332.349 279.40925 85
497158.021 5419331.389 278.97025 81
497159.071 5419332.071 279.39025 57
497159.251 5419331.719 279.15025 73
497159.663 5419333.384 278.79625 82
497158.131 5419333.259 278.82025 84
497157.316 5419332.702 279.16825 89
497156.131 5419332.793 279.04825 81
497156.071 5419333.379 278.68025 89
497156.065 5419331.514 279.15425 116
497157.267 5419331.827 279.31525 124
497157.141 5419331.321 278.96025 67
497157.12 5419332.45 279.29025 78
497155.93 5419333.321 278.71025 97
497156.951 5419332.62 279.18025 95
497155.97 5419331.491 279.10025 77
497155.941 5419332.719 279.10025 89
497156.961 5419332.42 279.30025 108
497156.961 5419332.241 279.45025 87
497156.97 5419331.95 279.34025 81
497156.882 5419332.923 278.97325 53
497156.094 5419332.332 279.34525 90
497156.164 5419333.241 278.75525 86
497155.93 5419333.111 278.83025 91
497156.091 5419332.549 279.19025 86
497156.11 5419331.509 279.09025 68
497156.081 5419332.759 279.08025 84
497155.951 5419332.299 279.32025 105
497157.11 5419332.861 279.03025 79
497155.565 5419332.213 279.37225 53
497155.97 5419331.81 279.31025 67
497155.951 5419332.509 279.21025 99
497156.807 5419331.599 279.17325 82
497157.278 5419332.234 279.48925 78
497157.12 5419332.651 279.16025 80
497156.081 5419332.96 278.92025 80
497157.258 5419331.443 279.08125 118
497155.535 5419331.369 279.09625 77
497157.131 5419332.25 279.43025 76
497156.98 5419331.31 278.96025 83
497157.141 5419331.651 279.18025 63
497156.1 5419332.16 279.49025 74
497156.93 5419333.429 278.68025 100
497155.941 5419332.91 278.95025 102
497156.1 5419331.849 279.32025 62
497155.545 5419331.787 279.34625 66
497156.091 5419332.349 279.32025 81
497155.961 5419332.129 279.49025 94
497156.941 5419333.031 278.92025 95
497157.131 5419331.991 279.41025 59
497156.98 5419331.629 279.17025 81
497155.64 5419333.185 278.77925 54
497156.941 5419333.219 278.79025 104
497156.845 5419332.457 279.28825 52
497156.071 5419333.17 278.80025 79
497155.602 5419332.697 279.08525 54
497157.11 5419333.071 278.91025 81
497156.951 5419332.821 279.04025 97
497156.072 5419331.901 279.41325 93
497157.352 5419333.173 278.86025 92
497157.1 5419333.281 278.78025 81
497156.815 5419331.997 279.47825 51
497157.1 5419333.48 278.63025 80
497156.92 5419333.396 278.67225 52
497160.708 5419331.793 279.13225 1
497160.11 5419331.94 279.29025 64
497160.071 5419333.27 278.90025 84
497160.131 5419331.299 278.89025 74
497160.24 5419333.299 278.88025 109
497160.12 5419331.62 279.10025 71
497160.281 5419331.599 279.08025 77
497160.697 5419331.401 278.96125 25
497160.271 5419332.281 279.52025 88
497160.091 5419332.67 279.27025 91
497160.311 5419332.929 279.12425 80
497160.254 5419332.02 279.39225 98
497160.246 5419331.622 279.10625 104
497160.251 5419332.679 279.26025 106
497160.11 5419332.281 279.52025 73
497160.1 5419332.46 279.39025 98
497160.261 5419332.48 279.39025 116
497160.24 5419333.099 279.00025 108
497160.271 5419331.929 279.28025 78
497160.347 5419333.389 278.82725 86
497160.273 5419332.452 279.43025 82
497160.081 5419333.08 279.04025 90
497160.091 5419332.87 279.14025 89
497160.071 5419333.48 278.78025 86
497160.251 5419332.889 279.14025 110
497160.29 5419331.259 278.83025 86
497159.281 5419330.41 278.33025 76
497159.548 5419330.798 278.58925 97
497159.061 5419330.668 278.52325 80
497159.539 5419330.401 278.33625 98
497159.261 5419331.071 278.75025 74
497159.043 5419329.85 278.02625 85
497159.1 5419331.099 278.76025 71
497159.12 5419330.129 278.15025 63
497159.281 5419330.071 278.09025 72
497159.11 5419330.45 278.35025 63
497159.1 5419330.77 278.55025 67
497158.417 5419330.366 278.35325 108
497158.201 5419330.27 278.25025 68
497158.211 5419329.62 277.84025 68
497159.053 5419330.261 278.26225 81
497159.069 5419331.06 278.79325 81
497158.18 5419330.929 278.68025 65
497157.875 5419329.651 277.93225 89
497158.06 5419329.781 277.96025 75
497157.885 5419330.054 278.17325 91
497158.43 5419331.145 278.86425 105
497159.532 5419329.992 278.07425 97
497158.04 5419330.75 278.56025 71
497159.555 5419331.207 278.84425 111
497158.402 5419329.582 277.84825 101
497159.035 5419329.446 277.74025 77
497159.131 5419329.48 277.72025 71
497158.04 5419330.429 278.39025 86
497158.201 5419329.94 278.03025 70
497157.901 5419330.884 278.72825 89
497157.892 5419330.469 278.44725 93
497158.191 5419330.599 278.46025 66
497158.031 5419331.071 278.78025 88
497158.05 5419330.099 278.15025 78
497158.425 5419330.764 278.60025 114
497159.12 5419329.81 277.94025 66
497158.06 5419329.46 277.74025 74
497159.29 5419329.75 277.89025 70
497159.523 5419329.582 277.82725 98
497158.409 5419329.969 278.08825 107
497159.271 5419330.73 278.52025 68
497156.043 5419330.35 278.39825 55
497157.16 5419330.33 278.35025 62
497156.049 5419330.741 278.68225 54
497157.021 5419329.389 277.73025 83
497157.17 5419330 278.12025 62
497155.518 5419330.545 278.55325 75
497157.001 5419330.349 278.34025 76
497156.781 5419330.396 278.44925 5
497156.141 5419329.87 278.06025 85
497156.001 5419329.87 278.05025 25
497156.12 5419331.179 278.91025 69
497155.511 5419330.145 278.28125 77
497157.001 5419330.67 278.56025 74
497157.236 5419330.253 278.31525 116
497156.151 5419329.531 277.84025 50
497157.252 5419331.052 278.80825 119
497155.501 5419329.73 278.02625 82
497155.99 5419330.849 278.71025 76
497157.22 5419329.469 277.81725 112
497156.772 5419329.991 278.19525 2
497157.244 5419330.651 278.58125 119
497156.027 5419329.577 277.92525 35
497155.528 5419330.957 278.82125 84
497156.99 5419330.991 278.75025 77
497157.011 5419330.031 278.14025 79
497157.229 5419329.872 278.05825 118
497156.055 5419331.119 278.91825 107
497157.151 5419330.98 278.75025 66
497156.12 5419330.849 278.69025 65
497155.98 5419331.17 278.90025 75
497156.796 5419331.19 278.96125 71
497156.789 5419330.804 278.71025 43
497156.011 5419329.549 277.85025 41
497157.16 5419330.651 278.54025 65
497157.021 5419329.71 277.93025 82
497156.034 5419329.953 278.17525 92
497156.767 5419329.599 277.85525 6
497157.18 5419329.67 277.92025 58
497160.141 5419330.651 278.47025 75
497160.668 5419329.869 277.98125 120
497160.151 5419330.33 278.25025 73
497160.31 5419329.94 277.99025 81
497160.22 5419330.42 278.34425 104
497160.16 5419329.69 277.86025 71
497160.203 5419329.617 277.84425 97
497160.229 5419330.821 278.63025 104
497160.69 5419331.015 278.71625 70
497160.213 5419330.026 278.09825 110
497160.31 5419330.259 278.21025 83
497160.676 5419330.247 278.19925 114
497160.66 5419329.484 277.72325 129
497160.239 5419331.23 278.85125 99
497160.131 5419330.96 278.65025 67
497160.321 5419329.62 277.82025 77
497160.16 5419330.009 278.07025 74
497160.682 5419330.634 278.47125 103
497160.29 5419330.929 278.64025 85
497160.3 5419330.599 278.44025 92
497149.718 5419335.518 277.09125 50
497149.68 5419335.037 277.39625 48
497150.68 5419335.2 277.33025 92
497150.152 5419334.719 277.63425 89
497150.501 5419335.491 277.15025 73
497149.006 5419335.44 277.13225 94
497149.6 5419334.94 277.47025 77
497148.97 5419334.974 277.41325 86
497149.61 5419334.719 277.60025 82
497150.68 5419335.009 277.46025 89
497150.944 5419335.304 277.25725 67
497150.907 5419334.832 277.57625 65
497150.22 5419335.628 277.06725 87
497149.643 5419334.56 277.68325 52
497150.511 5419335.299 277.26025 79
497149.441 5419334.821 277.52025 69
497149.591 5419335.361 277.20025 75
497150.68 5419334.821 277.58025 79
497150.521 5419334.741 277.65025 77
497150.521 5419334.92 277.52025 84
497149.43 5419335.04 277.40025 70
497149.42 5419335.66 276.98025 67
497149.441 5419334.611 277.64025 70
497149.6 5419335.16 277.34025 84
497149.591 5419335.58 277.06025 67
497150.511 5419335.111 277.39025 75
497150.189 5419335.179 277.31425 94
497149.43 5419335.25 277.27025 63
497149.42 5419335.46 277.12025 65
497150.67 5419335.389 277.21025 80
497150.501 5419335.679 277.02025 74
497150.67 5419335.599 277.10025 85
497150.979 5419335.781 276.99525 63
497150.48 5419336.46 276.52025 69
497149.41 5419335.879 276.86025 72
497150.48 5419336.651 276.39025 77
497149.401 5419336.741 276.32025 69
497149.152 5419337.355 275.90125 87
497150.49 5419336.071 276.77025 67
497149.043 5419335.923 276.80825 93
497149.581 5419336.009 276.79025 80
497149.391 5419337.17 276.03025 72
497149.37 5419337.83 275.63025 67
497149.581 5419336.23 276.64025 73
497150.461 5419337.45 275.89025 71
497150.451 5419337.87 275.66025 82
497149.186 5419337.832 275.62225 89
497150.631 5419337.79 275.69025 85
497149.901 5419337.889 275.59825 49
497149.591 5419335.799 276.92025 78
497149.571 5419336.889 276.22025 85
497149.865 5419337.406 275.88825 53
497150.651 5419336.58 276.48025 83
497150.323 5419336.974 276.20425 85
497149.828 5419336.943 276.18225 53
497150.66 5419336.2 276.77025 81
497149.401 5419336.52 276.44025 69
497149.571 5419336.67 276.35025 83
497149.581 5419336.46 276.51025 76
497149.381 5419337.611 275.77025 65
497150.49 5419336.27 276.67025 70
497150.358 5419337.416 275.90825 86
497149.41 5419336.089 276.71025 70
497150.256 5419336.071 276.75725 84
497149.754 5419335.98 276.79725 51
497150.651 5419336.781 276.32025 87
497150.391 5419337.869 275.64425 89
497150.451 5419337.66 275.78025 73
497150.47 5419336.849 276.28025 73
497150.461 5419337.259 276.02025 64
497150.49 5419335.879 276.91025 78
497149.56 5419337.571 275.82025 79
497150.289 5419336.526 276.47325 83
497149.391 5419336.95 276.18025 72
497150.641 5419336.969 276.19025 83
497149.115 5419336.872 276.19725 79
497149.56 5419337.339 275.96025 75
497149.56 5419337.111 276.07025 67
497150.66 5419336.379 276.59025 80
497149.789 5419336.457 276.52325 47
497149.08 5419336.401 276.51025 91
497149.55 5419337.781 275.64025 78
497150.631 5419337.589 275.81025 94
497150.641 5419337.179 276.08025 82
497150.641 5419337.389 275.97025 74
497149.381 5419337.389 275.90025 69
497149.41 5419336.31 276.58025 64
497150.47 5419337.06 276.15025 73
497150.67 5419335.781 276.96025 86
497150.66 5419335.991 276.85025 84
497152.831 5419335.16 277.47025 86
497152.821 5419335.58 277.17025 74
497151.761 5419335.42 277.23025 80
497152.229 5419335.707 277.05525 64
497152.157 5419334.77 277.64425 60
497151.6 5419335.111 277.42025 89
497151.397 5419334.957 277.51625 77
497151.771 5419334.759 277.66025 82
497151.761 5419335.2 277.39025 78
497151.61 5419334.69 277.69025 90
497152.691 5419334.849 277.63025 90
497151.591 5419335.531 277.16025 86
497152.67 5419335.173 277.44025 85
497152.831 5419335.349 277.30025 74
497152.192 5419335.23 277.35525 61
497151.761 5419335.651 277.11025 82
497152.67 5419335.469 277.23025 86
497152.68 5419335.06 277.51025 88
497151.771 5419334.969 277.52025 91
497151.431 5419335.41 277.22025 81
497152.67 5419335.679 277.10025 87
497152.68 5419335.259 277.37025 87
497151.6 5419334.901 277.54025 92
497151.591 5419335.741 277.01025 88
497152.706 5419335.643 277.13925 77
497151.6 5419335.33 277.30025 90
497152.841 5419334.94 277.60025 78
497152.781 5419337.56 275.93025 77
497152.641 5419336.73 276.41025 100
497151.72 5419337.46 275.94025 77
497151.73 5419337 276.23025 79
497151.573 5419337.27 276.02425 75
497152.377 5419337.594 275.85825 72
497151.73 5419336.77 276.36025 92
497152.821 5419336.009 276.90025 74
497151.571 5419336.389 276.62025 89
497152.81 5419336.23 276.76025 77
497152.66 5419336.099 276.82025 85
497151.054 5419336.736 276.37925 61
497152.814 5419337.043 276.22825 90
497152.66 5419335.879 276.96025 94
497151.607 5419337.73 275.77425 76
497152.781 5419337.781 275.77025 83
497152.267 5419336.179 276.76325 63
497152.304 5419336.645 276.45725 64
497152.8 5419336.879 276.33025 81
497151.711 5419337.7 275.79025 79
497152.79 5419337.111 276.19025 84
497152.651 5419336.31 276.68025 91
497152.79 5419337.33 276.04025 82
497151.711 5419337.92 275.65025 88
497151.74 5419336.54 276.51025 75
497151.56 5419336.81 276.34025 94
497152.778 5419336.571 276.53325 89
497151.092 5419337.22 276.08225 51
497152.651 5419336.52 276.56025 99
497152.62 5419337.379 276.01025 94
497151.54 5419337.901 275.64025 96
497151.751 5419335.87 276.96025 86
497152.342 5419337.122 276.13925 67
497152.81 5419336.45 276.61025 81
497152.821 5419335.799 277.04025 77
497151.72 5419337.23 276.09025 82
497151.502 5419336.344 276.63225 76
497152.62 5419337.599 275.87025 92
497151.54 5419337.69 275.79025 83
497151.535 5419336.805 276.37525 81
497151.581 5419336.16 276.74025 84
497151.13 5419337.707 275.76825 65
497151.467 5419335.876 276.93725 86
497151.017 5419336.27 276.67325 58
497152.885 5419337.97 275.64125 86
497152.8 5419336.66 276.48025 78
497151.55 5419337.25 276.06025 82
497151.56 5419337.031 276.21025 103
497152.631 5419337.16 276.15025 91
497152.61 5419337.81 275.75025 85
497151.74 5419336.31 276.67025 75
497152.849 5419337.514 275.95425 77
497152.641 5419336.96 276.31025 86
497151.751 5419336.089 276.79025 79
497152.743 5419336.116 276.82225 93
497151.571 5419336.599 276.47025 88
497151.581 5419335.96 276.86025 88
497151.55 5419337.46 275.93025 86
497149.37 5419338.049 275.48025 80
497150.451 5419338.06 275.52025 73
497149.55 5419338.009 275.49025 79
497150.631 5419338 275.58025 89
497148.47 5419338.151 275.47025 22
497158.16 5419325.111 275.03025 65
497159.24 5419324.54 274.62025 24
497158.946 5419325.355 275.18025 29
497159.23 5419324.849 274.85025 60
497158.31 5419324.549 274.69025 52
497158.305 5419324.781 274.86325 102
497158.3 5419324.879 274.91025 68
497159.37 5419325.589 275.29025 75
497159.381 5419325.27 275.08025 66
497159.435 5419325.071 274.97625 87
497158.321 5419325.578 275.36125 16
497158.936 5419324.952 274.95625 73
497158.17 5419324.5 274.64025 39
497159.22 5419325.45 275.20025 15
497159.441 5419325.486 275.27825 37
497158.29 5419325.16 275.06025 66
497157.774 5419325.06 275.03325 85
497159.391 5419324.66 274.71025 71
497157.783 5419325.484 275.31125 86
497159.22 5419325.151 275.01025 57
497158.314 5419325.185 275.10125 92
497158.16 5419324.81 274.85025 78
497158.151 5419325.41 275.20025 16
497159.381 5419324.991 274.95025 63
497157.765 5419324.645 274.78825 83
497159.211 5419325.781 275.45025 5
497158.925 5419324.531 274.71125 59
497159.425 5419324.663 274.75225 96
497158.141 5419325.73 275.44025 1
497158.29 5419325.5 275.32025 211
497157.261 5419324.92 274.97025 56
497155.934 5419324.849 274.94725 8
497157.1 5419325.66 275.41025 72
497157.132 5419325.099 275.08525 100
497156.23 5419324.759 274.85025 57
497157.251 5419325.531 275.34025 59
497156.665 5419325.134 275.12925 66
497156.043 5419326.616 274.40125 50
497157.271 5419324.589 274.75025 59
497156.034 5419326.225 274.20225 3
497156.653 5419324.714 274.93325 69
497157.142 5419325.492 275.31525 105
497155.523 5419326.651 274.08925 73
497155.945 5419325.259 275.13525 81
497157.125 5419324.696 274.82925 112
497157.12 5419324.759 274.86025 76
497156.22 5419325.389 275.25025 66
497156.11 5419324.901 274.95025 77
497156.675 5419325.549 275.36025 70
497157.11 5419325.349 275.21025 77
497156.22 5419325.7 275.44025 59
497156.11 5419324.58 274.74025 76
497156 5419325.765 274.45425 60
497157.11 5419325.049 275.02025 83
497157.261 5419325.2 275.10025 60
497156.091 5419325.5 275.32025 72
497156.23 5419325.08 275.06025 58
497156.1 5419325.19 275.13025 70
497155.501 5419326.193 274.09625 68
497160.271 5419324.73 274.74025 71
497160.261 5419325.33 275.10025 64
497160.41 5419325.16 275.02025 71
497160.104 5419325.14 275.05325 104
497160.583 5419325.616 275.29225 111
497160.567 5419324.835 274.82725 110
497160.576 5419325.23 275.06225 105
497160.41 5419324.849 274.81025 74
497160.261 5419325.049 274.96025 60
497160.115 5419325.56 275.27925 95
497160.095 5419324.73 274.78425 94
497160.42 5419324.531 274.62025 1
497160.251 5419325.629 275.28025 67
497160.401 5419325.45 275.17025 73
497160.391 5419325.781 275.39025 74
497156.638 5419323.907 274.36025 73
497156.12 5419324.281 274.56025 77
497156.251 5419324.139 274.45025 62
497155.918 5419324.055 274.47025 115
497156.24 5419324.46 274.66025 64
497156.12 5419323.969 274.35025 79
497156.131 5419323.67 274.17025 86
497156.647 5419324.31 274.60825 72
497155.909 5419323.656 274.20225 101
497157.131 5419324.45 274.66025 44
497155.925 5419324.457 274.73125 112
497156.633 5419323.503 274.00525 18
497156.261 5419323.531 274.10025 12
497156.251 5419323.83 274.27025 63
497151.642 5419338.197 275.48325 82
497152.771 5419338.009 275.62025 82
497151.531 5419338.12 275.51025 99
497151.165 5419338.177 275.46925 59
497152.414 5419338.071 275.55525 63
497152.6 5419338.259 275.48025 94
497152.771 5419338.241 275.48025 83
497151.701 5419338.151 275.48025 78
497152.61 5419338.031 275.60025 90
497146.783 5419339.577 274.44925 97
497148.271 5419338.31 275.35025 4
497147.461 5419338.602 275.06525 61
497146.679 5419338.224 275.33225 11
497148.271 5419338.08 275.43025 2
497147.261 5419338.98 274.81025 79
497148.251 5419339.389 274.60025 64
497148.461 5419338.79 274.98025 73
497148.261 5419338.509 275.15025 17
497148.057 5419339.77 274.42525 81
497147.1 5419339.46 274.55025 71
497148.026 5419339.315 274.65625 68
497148.451 5419339.48 274.59025 78
497148.251 5419339.17 274.75025 68
497147.11 5419338.79 274.96025 73
497147.281 5419338.089 275.41025 81
497147.497 5419339.089 274.77625 65
497148.261 5419338.741 275.05025 63
497147.423 5419338.123 275.38025 53
497146.815 5419340.026 274.19925 83
497147.081 5419340.129 274.14025 68
497148.23 5419340.049 274.18025 68
497147.251 5419340.139 274.12025 68
497148.441 5419339.94 274.31025 82
497148.451 5419339.25 274.73025 84
497146.716 5419338.69 274.98925 69
497147.1 5419339.009 274.81025 73
497147.261 5419339.46 274.56025 91
497147.271 5419338.759 274.96025 83
497148.47 5419338.379 275.38025 27
497148.702 5419338.416 275.25225 18
497147.12 5419338.129 275.37025 27
497147.989 5419338.832 274.95225 71
497148.24 5419339.629 274.50025 74
497147.12 5419338.349 275.24025 32
497148.461 5419338.56 275.13025 52
497147.572 5419340.054 274.17825 52
497147.948 5419338.339 275.31725 28
497148.24 5419339.83 274.34025 74
497147.261 5419339.219 274.70025 84
497148.461 5419339.031 274.89025 75
497148.451 5419339.719 274.49025 99
497147.271 5419338.54 275.11025 73
497147.091 5419339.679 274.41025 78
497147.1 5419339.23 274.68025 75
497147.11 5419338.56 275.09025 67
497147.271 5419338.321 275.30025 74
497147.251 5419339.679 274.39025 85
497146.749 5419339.126 274.73025 81
497148.441 5419340.17 274.17025 76
497147.091 5419339.901 274.27025 70
497148.261 5419338.95 274.90025 64
497147.537 5419339.582 274.44225 70
497147.251 5419339.901 274.25025 82
497149.936 5419338.361 275.33225 50
497149.36 5419338.27 275.34025 71
497149.521 5419339.389 274.69025 77
497149.521 5419339.62 274.51025 69
497149.341 5419339.401 274.67025 66
497149.258 5419338.785 275.02125 91
497149.35 5419339.17 274.78025 78
497150.6 5419339.46 274.67025 86
497150.42 5419339.29 274.74025 69
497150.62 5419338.42 275.31025 90
497149.35 5419338.94 274.94025 77
497150.441 5419338.281 275.42025 74
497150.011 5419339.31 274.71925 61
497148.815 5419339.855 274.34425 52
497149.54 5419338.7 275.09025 76
497150.045 5419339.787 274.47325 62
497149.531 5419339.151 274.80025 74
497149.511 5419339.839 274.35025 78
497150.6 5419339.25 274.79025 84
497150.41 5419339.5 274.62025 78
497150.43 5419338.67 275.13025 74
497148.743 5419338.906 274.92525 59
497150.494 5419339.219 274.78725 91
497149.295 5419339.265 274.72625 86
497149.35 5419338.719 275.08025 69
497150.61 5419338.62 275.18025 89
497150.43 5419338.879 275.03025 77
497149.531 5419338.929 274.94025 82
497149.331 5419340.071 274.22025 66
497150.591 5419340.089 274.24025 80
497148.779 5419339.389 274.62425 55
497150.591 5419339.679 274.54025 88
497150.529 5419339.677 274.49425 80
497150.401 5419340.12 274.22025 77
497149.36 5419338.5 275.22025 76
497149.368 5419340.23 274.14625 81
497149.331 5419339.861 274.39025 69
497149.974 5419338.833 274.99725 58
497150.401 5419339.92 274.34025 83
497150.564 5419340.129 274.21925 82
497150.459 5419338.776 275.07625 90
497149.341 5419339.62 274.51025 75
497149.54 5419338.241 275.38025 73
497149.328 5419339.741 274.49925 92
497150.61 5419339.04 274.92025 82
497150.591 5419339.879 274.40025 97
497150.425 5419338.325 275.35125 87
497149.511 5419340.089 274.24025 68
497150.42 5419339.089 274.89025 66
497150.441 5419338.469 275.27025 67
497150.62 5419338.2 275.43025 87
497150.61 5419338.83 275.06025 85
497149.54 5419338.469 275.25025 79
497150.41 5419339.719 274.52025 76
497149.224 5419338.315 275.32025 89
497151.68 5419339.571 274.60025 30
497151.66 5419340.06 274.31025 78
497151.691 5419338.639 275.21025 74
497152.6 5419338.469 275.32025 99
497151.24 5419339.151 274.85825 61
497151.279 5419339.622 274.54325 57
497152.581 5419339.361 274.77025 90
497151.679 5419338.668 275.17825 83
497152.56 5419340.02 274.34025 93
497152.581 5419339.139 274.91025 83
497152.751 5419339.139 274.91025 76
497152.74 5419339.37 274.76025 78
497152.751 5419338.92 275.07025 75
497151.49 5419339.92 274.39025 78
497152.591 5419338.69 275.21025 85
497152.571 5419339.799 274.48025 80
497151.501 5419339.469 274.68025 84
497152.56 5419340.241 274.19025 86
497151.749 5419339.592 274.59425 77
497151.531 5419338.349 275.37025 88
497152.73 5419339.83 274.48025 75
497151.49 5419339.69 274.51025 80
497152.92 5419338.441 275.35625 92
497151.701 5419338.389 275.33025 77
497152.571 5419339.58 274.65025 83
497151.784 5419340.058 274.32225 83
497151.48 5419340.139 274.23025 84
497151.714 5419339.126 274.86025 78
497151.691 5419339.099 274.91025 35
497152.73 5419340.06 274.31025 77
497151.691 5419338.861 275.04025 45
497151.511 5419339.02 274.96025 85
497152.542 5419339.532 274.34325 11
497152.99 5419339.372 274.76425 96
497152.74 5419339.611 274.61025 75
497151.203 5419338.662 275.15425 56
497151.511 5419338.79 275.08025 88
497151.511 5419339.241 274.82025 91
497151.521 5419338.58 275.24025 89
497151.67 5419339.821 274.45025 35
497153.027 5419339.845 274.46925 81
497152.562 5419339.963 274.37225 41
497152.761 5419338.7 275.23025 72
497151.317 5419340.109 274.22825 68
497151.68 5419339.339 274.75025 30
497152.591 5419338.92 275.06025 89
497152.956 5419338.916 275.05825 79
497152.761 5419338.46 275.34025 79
497152.452 5419338.548 275.26425 55
497148.23 5419340.259 273.98025 20
497148.099 5419340.268 274.01925 11
497150.581 5419340.321 274.15025 71
497149.321 5419340.281 274.04025 30
497150.086 5419340.276 274.12025 58
497150.401 5419340.339 274.10025 48
497149.511 5419340.299 274.04025 33
497152.711 5419340.781 273.92025 81
497152.599 5419340.424 274.07425 72
497152.72 5419340.299 274.17025 78
497153.064 5419340.316 274.18325 91
497153.098 5419340.771 273.91125 33
497152.54 5419340.929 273.79025 100
497152.678 5419341.395 273.38025 10
497152.72 5419340.54 274.05025 82
497152.531 5419341.151 273.62025 94
497152.711 5419341.02 273.76025 71
497151.854 5419340.98 273.73125 2
497152.54 5419340.71 273.94025 94
497152.55 5419340.5 274.12025 85
497151.47 5419340.611 273.98025 84
497151.651 5419340.54 274.00025 84
497151.816 5419340.503 274.09625 92
497151.651 5419340.79 273.87025 74
497151.66 5419340.299 274.16025 72
497152.635 5419340.901 273.79225 57
497152.701 5419341.23 273.54025 4
497151.47 5419340.821 273.79025 21
497151.354 5419340.589 273.95425 10
497152.531 5419341.361 273.42025 19
497151.48 5419340.379 274.11025 83
497147.47 5419325.071 275.34025 57
497148.033 5419324.753 275.15625 76
497148.042 5419325.168 275.42525 75
497146.774 5419324.744 275.17325 23
497148.511 5419325.009 275.30025 203
497147.35 5419324.611 275.05025 53
497148.68 5419324.56 275.00025 64
497147.341 5419325.21 275.44025 50
497147.314 5419324.77 275.17725 45
497147.341 5419324.91 275.22025 39
497148.521 5419324.7 275.09025 43
497147.47 5419324.75 275.14025 50
497148.68 5419324.879 275.21025 40
497148.584 5419324.707 275.13925 101
497148.555 5419323.058 274.04025 27
497147.279 5419323.122 274.20225 94
497148.701 5419323.071 274.08025 5
497148.521 5419324.41 274.90025 51
497147.36 5419323.719 274.49025 59
497148.531 5419323.821 274.54025 53
497148.54 5419323.54 274.38025 51
497147.289 5419323.528 274.43325 109
497147.501 5419323.23 274.19025 55
497146.756 5419323.889 274.66825 81
497147.37 5419323.429 274.35025 48
497147.37 5419323.129 274.16025 48
497146.746 5419323.463 274.40425 76
497148.023 5419324.344 274.90625 78
497147.996 5419323.099 274.13525 59
497148.572 5419323.895 274.56525 117
497146.766 5419324.318 274.90925 79
497147.305 5419324.362 274.94025 106
497148.531 5419324.111 274.72025 54
497147.49 5419323.549 274.44025 54
497148.577 5419324.293 274.87025 116
497148.54 5419323.241 274.20025 55
497147.35 5419324.321 274.88025 52
497148.006 5419323.503 274.38425 76
497148.561 5419323.469 274.37025 109
497147.49 5419323.83 274.56025 55
497148.691 5419324.259 274.81025 59
497148.015 5419323.923 274.64225 78
497148.691 5419323.96 274.62025 67
497147.48 5419324.129 274.74025 53
497147.36 5419324.009 274.67025 52
497147.298 5419323.946 274.68325 98
497148.691 5419323.651 274.42025 66
497146.736 5419323.048 274.17325 70
497147.48 5419324.44 274.94025 56
497148.701 5419323.361 274.25025 71
497153.72 5419336.089 276.88025 85
497154.087 5419337.501 275.99725 85
497153.881 5419337.08 276.26025 88
497153.445 5419335.977 276.93325 49
497154.121 5419337.958 275.69725 83
497154.92 5419337.04 276.34025 87
497153.519 5419336.94 276.32725 52
497154.761 5419336.651 276.56025 82
497153.881 5419336.849 276.38025 83
497153.978 5419336.072 276.89225 73
497154.781 5419335.799 277.09025 83
497153.87 5419337.29 276.10025 81
497154.92 5419337.25 276.18025 88
497154.951 5419335.92 277.01025 79
497154.93 5419336.81 276.45025 86
497153.86 5419337.741 275.82025 84
497154.73 5419337.509 276.02025 12
497153.91 5419335.77 277.08025 78
497154.771 5419336.219 276.81025 83
497154.013 5419336.548 276.60025 83
497153.73 5419335.87 277.02025 82
497153.87 5419337.52 275.98025 76
497153.711 5419336.5 276.59025 81
497154.72 5419337.95 275.78025 14
497154.761 5419336.429 276.68025 86
497154.941 5419336.139 276.89025 80
497155.266 5419337.219 276.20725 91
497154.679 5419336.177 276.85525 65
497153.691 5419337.37 276.06025 78
497154.74 5419337.29 276.17025 82
497153.68 5419337.589 275.93025 79
497153.86 5419337.96 275.69025 81
497154.91 5419337.469 276.01025 21
497154.751 5419336.861 276.40025 92
497154.73 5419337.73 275.92025 20
497154.789 5419337.612 275.96125 56
497154.93 5419336.589 276.60025 88
497153.483 5419336.457 276.61825 57
497154.751 5419337.071 276.30025 86
497153.891 5419336.429 276.68025 80
497153.891 5419336.639 276.54025 80
497153.901 5419336.2 276.80025 85
497153.555 5419337.423 276.04725 56
497153.72 5419336.299 276.75025 79
497154.754 5419337.129 276.23925 65
497153.901 5419335.98 276.93025 81
497155.156 5419335.791 277.12925 94
497153.701 5419336.94 276.34025 83
497154.771 5419336.009 276.94025 85
497155.195 5419336.276 276.78125 88
497153.701 5419337.151 276.19025 80
497154.941 5419336.361 276.74025 82
497155.229 5419336.741 276.50525 91
497153.68 5419337.799 275.81025 86
497154.05 5419337.026 276.30225 83
497153.711 5419336.73 276.50025 79
497154.716 5419336.645 276.54825 60
497153.594 5419337.89 275.71125 47
497153.371 5419335.028 277.52625 50
497154.8 5419335.179 277.49025 81
497153.93 5419334.91 277.64025 83
497154.97 5419334.83 277.69025 92
497153.92 5419335.339 277.35025 82
497153.74 5419335.44 277.27025 84
497153.406 5419335.504 277.26425 50
497153.74 5419335.25 277.43025 78
497154.961 5419335.281 277.44025 91
497153.761 5419334.83 277.69025 81
497153.751 5419335.031 277.55025 86
497153.91 5419335.56 277.22025 80
497154.79 5419335.379 277.35025 71
497154.641 5419335.69 277.15925 70
497154.781 5419335.58 277.21025 78
497155.119 5419335.31 277.42725 90
497153.73 5419335.66 277.14025 89
497154.951 5419335.7 277.13025 89
497153.942 5419335.612 277.19925 82
497154.604 5419335.207 277.46325 69
497154.97 5419335.049 277.56025 79
497154.961 5419335.48 277.28025 79
497154.8 5419334.96 277.62025 83
497155.083 5419334.833 277.70725 93
497153.92 5419335.12 277.49025 88
497153.85 5419338.19 275.56025 84
497153.67 5419338.02 275.65025 76
497154.827 5419338.083 275.64925 23
497154.72 5419338.16 275.62025 18
497153.67 5419338.23 275.50025 82
497154.711 5419338.379 275.50025 14
497158.191 5419335.509 277.40125 62
497157.91 5419335.361 277.49025 87
497158.713 5419335.594 277.33825 86
497158.98 5419335.17 277.63025 83
497158.081 5419335.16 277.63025 83
497158.97 5419335.589 277.37025 77
497159.81 5419335.298 277.57725 67
497158.071 5419335.58 277.35025 86
497157.91 5419335.571 277.34025 91
497159.141 5419335.69 277.32025 92
497159.16 5419335.259 277.58025 86
497159.151 5419335.48 277.44025 90
497158.678 5419335.128 277.63225 72
497159.16 5419335.04 277.71025 92
497159.322 5419335.126 277.64925 54
497157.92 5419335.151 277.62025 92
497158.154 5419335.02 277.68625 58
497158.97 5419335.37 277.48025 81
497158.071 5419335.37 277.48025 82
497159.359 5419335.6 277.36125 57
497155.868 5419336.088 276.93625 50
497155.831 5419336.861 276.47025 86
497155.81 5419337.73 275.93025 24
497157.599 5419336.406 276.82225 82
497155.951 5419337.91 275.81025 75
497157.566 5419335.952 277.10625 78
497155.85 5419336.23 276.90025 94
497155.961 5419337.469 276.09025 80
497157.217 5419337.168 276.27825 46
497157.708 5419337.804 275.89925 81
497156.831 5419336.95 276.41025 101
497157.011 5419336.69 276.60025 81
497156.841 5419336.54 276.71025 94
497156.821 5419337.401 276.17025 92
497157.142 5419336.225 276.88225 51
497155.97 5419337.23 276.20025 86
497157.001 5419337.139 276.34025 80
497156.85 5419336.321 276.81025 97
497156.479 5419337.349 276.18225 68
497157.104 5419335.748 277.18725 52
497157.021 5419336.259 276.89025 82
497156.821 5419337.17 276.28025 92
497157.031 5419336.031 277.00025 83
497156.98 5419337.81 275.93025 9
497156.8 5419337.821 275.89025 28
497155.98 5419336.81 276.51025 75
497155.841 5419336.429 276.75025 97
497155.961 5419337.7 275.96025 73
497157.001 5419337.349 276.17025 75
497155.821 5419337.281 276.19025 97
497155.841 5419336.639 276.59025 101
497155.81 5419337.48 275.99025 36
497156.409 5419336.446 276.73525 78
497156.99 5419337.56 275.99025 7
497155.941 5419337.048 276.34025 47
497157.251 5419337.636 276.02925 1
497155.979 5419337.537 276.03825 4
497155.906 5419336.577 276.63225 54
497156.831 5419336.741 276.56025 95
497156.446 5419336.906 276.44125 82
497155.821 5419337.071 276.34025 86
497155.98 5419337.02 276.37025 80
497156.375 5419335.98 277.02325 80
497157.18 5419336.702 276.58425 56
497156.86 5419335.901 277.11025 87
497155.8 5419337.95 275.81025 25
497155.86 5419335.79 277.12025 97
497156.001 5419335.92 277.05025 86
497156.81 5419337.611 276.03025 8
497157.031 5419335.81 277.14025 78
497155.85 5419336 276.99025 90
497156.001 5419336.139 276.91025 82
497155.99 5419336.571 276.63025 81
497156.85 5419336.099 276.96025 97
497157.011 5419336.91 276.45025 74
497157.637 5419336.872 276.51225 87
497157.673 5419337.345 276.21925 82
497155.99 5419336.361 276.79025 83
497157.021 5419336.469 276.73025 81
497158.23 5419335.997 277.07925 63
497159.843 5419335.776 277.30825 76
497158.854 5419337.446 276.20625 79
497159.961 5419336.781 276.65025 98
497159.97 5419336.58 276.80025 92
497158.031 5419336.889 276.52025 82
497158.011 5419337.781 275.96025 78
497158.011 5419337.549 276.06025 77
497158.343 5419337.452 276.16825 57
497157.841 5419337.91 275.85025 91
497158.891 5419337.929 275.88025 84
497158.021 5419337.33 276.22025 80
497158.382 5419337.946 275.86025 62
497159.11 5419336.781 276.61025 87
497158.746 5419336.055 277.08825 83
497159.141 5419335.901 277.16025 103
497158.951 5419336.219 276.96025 75
497158.031 5419337.111 276.37025 76
497158.92 5419337.27 276.27025 73
497157.87 5419336.629 276.69025 92
497158.941 5419336.429 276.83025 81
497158.961 5419335.79 277.23025 77
497157.901 5419335.77 277.22025 89
497159.47 5419337.031 276.44125 55
497158.901 5419337.719 276.04025 75
497159.941 5419337.639 276.10025 88
497158.04 5419336.679 276.66025 82
497158.93 5419336.639 276.70025 74
497159.99 5419335.929 277.17025 99
497159.1 5419337.44 276.19025 94
497159.396 5419336.082 277.07625 54
497158.892 5419337.923 275.85825 81
497159.961 5419337 276.52025 94
497159.081 5419337.879 275.90025 83
497158.951 5419336 277.10025 74
497158.267 5419336.474 276.76825 68
497158.93 5419336.861 276.56025 75
497159.434 5419336.548 276.75025 54
497157.891 5419336.2 276.94025 98
497159.11 5419336.991 276.47025 89
497159.12 5419336.56 276.75025 95
497158.91 5419337.5 276.17025 72
497159.882 5419336.259 276.96825 77
497158.06 5419336.009 277.06025 85
497158.06 5419335.799 277.21025 78
497159.918 5419336.724 276.68725 72
497159.131 5419336.339 276.90025 88
497158.305 5419336.963 276.47825 62
497158.784 5419336.528 276.76425 75
497159.98 5419336.37 276.93025 93
497159.955 5419337.208 276.37025 68
497159.1 5419337.23 276.36025 92
497159.091 5419337.66 276.05025 97
497159.545 5419337.991 275.85825 64
497159.99 5419337.687 276.09125 74
497158.05 5419336.23 276.93025 91
497158.92 5419337.06 276.43025 75
497159.98 5419336.16 277.07025 88
497157.85 5419337.27 276.27025 85
497159.93 5419337.861 275.96025 88
497157.881 5419336.389 276.78025 96
497159.131 5419336.12 277.03025 83
497158.821 5419336.997 276.46425 75
497158.05 5419336.45 276.78025 83
497159.941 5419337.429 276.24025 99
497159.507 5419337.504 276.18025 55
497157.86 5419337.04 276.39025 103
497157.87 5419336.839 276.54025 89
497157.85 5419337.491 276.14025 95
497157.891 5419335.991 277.10025 91
497157.841 5419337.69 276.00025 94
497156.021 5419335.281 277.46025 86
497157.05 5419335.379 277.44025 82
497155.792 5419335.122 277.55025 59
497155.827 5419335.594 277.27625 53
497156.011 5419335.491 277.30025 84
497156.305 5419335.071 277.60825 84
497157.531 5419335.484 277.38025 88
497156.86 5419335.7 277.25025 102
497155.881 5419334.96 277.66025 97
497156.87 5419335.469 277.36025 97
497156.881 5419335.06 277.62025 98
497157.495 5419335.014 277.68725 82
497157.04 5419335.599 277.29025 81
497155.87 5419335.379 277.41025 94
497157.05 5419335.179 277.57025 77
497156.031 5419335.071 277.63025 82
497156.881 5419335.259 277.48025 106
497156.341 5419335.537 277.30725 75
497157.069 5419335.287 277.47625 54
497155.881 5419335.16 277.53025 88
497156.011 5419335.71 277.19025 78
497155.86 5419335.589 277.27025 98
497157.06 5419334.95 277.68025 84
497158.419 5419338.42 275.55725 60
497159.92 5419338.29 275.70025 91
497159.91 5419338.509 275.54025 99
497159.071 5419338.339 275.64025 93
497157.744 5419338.27 275.63225 82
497158.925 5419338.384 275.60325 78
497158.001 5419338 275.80025 86
497159.06 5419338.571 275.49025 90
497158.881 5419338.361 275.60025 81
497158.891 5419338.151 275.74025 77
497157.99 5419338.44 275.51025 80
497158.001 5419338.219 275.65025 87
497159.081 5419338.12 275.78025 90
497157.831 5419338.129 275.70025 97
497157.821 5419338.361 275.60025 96
497158.87 5419338.599 275.48025 77
497159.92 5419338.089 275.83025 91
497159.581 5419338.452 275.57225 66
497155.79 5419338.379 275.52025 39
497156.017 5419338.026 275.73525 33
497155.941 5419338.361 275.51025 78
497157.289 5419338.116 275.72025 4
497156.97 5419338.5 275.53025 2
497156.97 5419338.27 275.67025 1
497155.8 5419338.151 275.64025 36
497155.951 5419338.139 275.67025 81
497150.85 5419325.111 275.39025 80
497150.72 5419324.531 274.90025 53
497150.711 5419324.781 275.06025 53
497150.85 5419324.839 275.21025 62
497149.62 5419324.81 275.08025 50
497149.62 5419324.531 274.93025 53
497150.85 5419324.651 275.26025 37
497150.831 5419325.849 274.66025 90
497150.831 5419326.259 274.63025 74
497149.761 5419325.06 275.26025 56
497149.789 5419324.683 275.07725 109
497150.841 5419325.509 274.31025 79
497150.701 5419325.33 275.41025 57
497150.711 5419325.071 275.27025 64
497149.761 5419325.361 275.44025 57
497150.831 5419326.02 274.56025 135
497149.771 5419324.741 275.05025 58
497150.512 5419324.518 274.93925 78
497149.273 5419324.804 275.15425 56
497149.61 5419325.129 275.30025 54
497150.523 5419324.937 275.19725 73
497150.841 5419325.71 275.36025 16
497150.841 5419325.54 275.46025 84
497149.796 5419325.077 275.32025 111
497151.844 5419325.616 274.41225 166
497151.81 5419324.52 274.83025 18
497151.8 5419325.17 274.72025 1
497153.021 5419325.08 274.21025 39
497152.881 5419325.469 274.88025 42
497152.86 5419326.361 274.76025 143
497151.882 5419326.094 274.09325 85
497153.05 5419326.143 274.77625 152
497152.409 5419326.599 274.07725 119
497152.86 5419326.129 274.76025 155
497153.018 5419325.679 274.93325 105
497151.941 5419325.009 274.58025 2
497151.086 5419325.912 274.79225 79
497153.001 5419326.219 274.67025 102
497152.32 5419325.237 274.60525 1
497151.781 5419325.889 274.16025 182
497151.93 5419325.83 274.17025 155
497151.951 5419324.849 274.79025 24
497151.016 5419324.599 274.97325 64
497151.8 5419324.839 274.44025 118
497151.93 5419325.56 274.14025 13
497152.368 5419325.741 274.06725 118
497151.8 5419324.839 275.03025 6
497151.79 5419325.401 274.09025 4
497151.781 5419325.651 274.12025 57
497153.011 5419325.679 275.13025 48
497152.891 5419324.901 274.60025 131
497152.87 5419325.73 274.94025 80
497153.077 5419326.605 274.65625 131
497153.001 5419325.81 274.86025 57
497153.021 5419324.91 274.40025 85
497152.97 5419324.787 275.01425 3
497151.92 5419326.06 274.13025 127
497152.388 5419326.162 274.06225 100
497151.951 5419324.639 274.87025 2
497151.023 5419325.003 275.22325 49
497151.773 5419324.679 274.97125 4
497152.87 5419325.83 274.62025 106
497153.001 5419325.879 274.44025 56
497152.881 5419325.099 274.52025 55
497151.906 5419326.543 274.07225 88
497152.278 5419324.753 275.00525 13
497151.121 5419326.378 274.50225 98
497151.926 5419326.969 274.07925 70
497152.43 5419327.031 274.07425 84
497153.129 5419327.122 274.07925 81
497151.164 5419326.866 274.06625 92
497149.631 5419323.91 274.55025 53
497150.72 5419324.25 274.71025 64
497149.761 5419323.122 274.03125 20
497150.74 5419323.469 274.23025 62
497150.73 5419323.98 274.54025 62
497150.74 5419323.2 274.05025 16
497150.86 5419324.23 274.71025 70
497150.991 5419323.389 274.22025 120
497150.87 5419323.429 274.21025 71
497149.771 5419324.44 274.89025 60
497149.781 5419323.821 274.50025 68
497150.505 5419324.111 274.67725 75
497149.781 5419324.12 274.68025 65
497150.73 5419323.73 274.38025 63
497149.255 5419323.969 274.65925 75
497149.631 5419324.21 274.72025 50
497150.86 5419323.969 274.55025 77
497150.87 5419323.7 274.38025 71
497150.484 5419323.261 274.17325 71
497149.641 5419323.62 274.38025 58
497149.236 5419323.146 274.12925 53
497150.881 5419323.179 274.05025 6
497149.265 5419324.386 274.90425 66
497149.79 5419323.509 274.31025 61
497149.651 5419323.321 274.20025 49
497149.773 5419323.893 274.58825 124
497149.79 5419323.2 274.12025 40
497149.782 5419324.287 274.81125 119
497150.496 5419323.685 274.41325 68
497149.246 5419323.565 274.39225 68
497149.765 5419323.497 274.34625 114
497152.261 5419323.952 274.53325 124
497151.831 5419323.33 274.11025 43
497151.97 5419323.389 274.15025 59
497151.821 5419323.94 274.50025 70
497151.961 5419324.339 274.73025 65
497151.762 5419324.261 274.74525 93
497152.901 5419324.23 274.63025 79
497151.001 5419323.798 274.45725 121
497151.831 5419323.62 274.28025 66
497153.04 5419323.71 274.28025 52
497151.97 5419323.71 274.34025 68
497153.04 5419324.031 274.50025 57
497151.007 5419324.202 274.73125 115
497151.746 5419323.45 274.22325 86
497152.944 5419323.543 274.24025 77
497152.271 5419324.361 274.76425 140
497151.961 5419324.031 274.55025 65
497153.05 5419323.401 274.09025 35
497152.952 5419323.963 274.51425 71
497151.755 5419323.861 274.47825 88
497153.031 5419324.33 274.68025 54
497152.91 5419323.62 274.24025 72
497152.92 5419323.33 274.08025 22
497152.255 5419323.548 274.24725 121
497152.963 5419324.369 274.75025 85
497152.91 5419323.929 274.46025 78
497151.81 5419324.23 274.68025 70
497160.12 5419337.389 276.29025 103
497160.16 5419336.06 277.11025 116
497160.141 5419336.5 276.83025 91
497160.141 5419336.73 276.71025 97
497160.16 5419335.849 277.27025 106
497160.12 5419337.151 276.40025 111
497160.1 5419337.83 276.00025 107
497160.151 5419336.281 276.99025 112
