497141.63 5419322.9115 274.23925 93
497142.461 5419323.0485 274.27025 76
497141.341 5419323.0405 274.25025 69
497142.909 5419323.0585 274.24325 73
497143.458 5419323.0025 274.23825 103
497145.11 5419323.0195 274.13025 56
497143.86 5419322.9505 274.16025 61
497144.98 5419322.9285 274.10025 32
497144.243 5419323.0025 274.19025 71
497144.746 5419322.8325 274.01825 10
497143.73 5419322.9505 274.16025 62
497146.736 5419323.0485 274.17325 72
497146.017 5419323.0255 274.15425 103
497146.18 5419322.9915 274.12025 32
497147.37 5419323.1285 274.16025 49
497147.279 5419323.1225 274.20225 97
497146.31 5419323.1205 274.17025 51
497151.641 5419333.4505 278.46025 96
497151.79 5419334.0995 278.07025 88
497150.832 5419333.8605 278.18525 66
497151.62 5419334.0715 278.09025 96
497150.701 5419333.8605 278.21025 94
497150.72 5419333.1105 278.67025 90
497150.711 5419333.6705 278.32025 89
497151.62 5419334.2815 277.97025 92
497150.701 5419334.2505 277.96025 84
497150.711 5419333.4915 278.42025 86
497151.631 5419333.6705 278.36025 87
497150.794 5419333.3835 278.48525 68
497149.641 5419333.0315 278.68025 73
497151.8 5419333.2305 278.64025 86
497150.121 5419334.2865 277.87025 94
497149.631 5419333.6505 278.26025 84
497151.29 5419333.5715 278.41625 89
497149.631 5419333.2415 278.54025 83
497150.55 5419333.2305 278.58025 86
497151.631 5419333.8605 278.23025 94
497151.327 5419334.0255 278.06225 90
497150.711 5419333.2985 278.56025 86
497151.8 5419333.4405 278.50025 86
497150.084 5419333.8325 278.17525 84
497150.54 5419333.9805 278.12025 75
497150.54 5419333.7905 278.24025 76
497151.79 5419333.8785 278.22025 88
497151.781 5419334.3095 277.93025 84
497151.255 5419333.1055 278.69925 91
497150.701 5419334.0485 278.06025 86
497150.56 5419333.0485 278.71025 81
497150.55 5419333.4105 278.47025 80
497150.55 5419333.5995 278.34025 81
497151.8 5419333.6705 278.37025 86
497150.531 5419334.1705 278.01025 77
497149.631 5419333.4505 278.42025 91
497151.641 5419333.2415 278.60025 92
497150.05 5419333.3775 278.47125 91
497149.41 5419336.0885 276.71025 72
497149.441 5419334.8215 277.52025 71
497149.591 5419335.5805 277.06025 69
497149.43 5419335.0405 277.40025 72
497149.41 5419335.8785 276.86025 74
497147.773 5419335.9775 276.74725 85
497147.668 5419334.5545 277.62025 83
497149.42 5419335.6605 276.98025 69
497149.581 5419336.0085 276.79025 82
497148.521 5419336.0365 276.71125 57
497148.511 5419335.9205 276.78025 92
497148.321 5419335.5315 277.02025 70
497149.591 5419335.7985 276.92025 80
497148.341 5419334.7105 277.53025 74
497148.341 5419334.5085 277.66025 71
497148.31 5419336.1605 276.63025 75
497149.441 5419334.6105 277.64025 72
497148.531 5419334.6505 277.60025 82
497149.441 5419334.4105 277.81025 75
497149.43 5419335.2505 277.27025 65
497148.521 5419335.0715 277.33025 90
497149.581 5419336.4605 276.51025 78
497148.521 5419335.5005 277.06025 78
497149.61 5419334.5085 277.74025 78
497149.591 5419335.3605 277.20025 77
497148.321 5419335.9505 276.73025 74
497149.6 5419335.1605 277.34025 86
497149.08 5419336.4005 276.51025 93
497147.809 5419336.4575 276.46625 77
497148.521 5419335.2815 277.20025 83
497148.531 5419334.8605 277.48025 85
497149.41 5419336.3095 276.58025 66
497148.511 5419336.1395 276.66025 82
497149.61 5419334.7185 277.60025 84
497147.738 5419335.4975 277.03825 81
497148.935 5419334.4915 277.71925 96
497148.331 5419335.1285 277.29025 71
497148.97 5419334.9745 277.41325 88
497148.321 5419335.7415 276.87025 77
497148.331 5419335.3215 277.14025 74
497147.703 5419335.0365 277.32125 81
497148.484 5419335.5535 277.00925 60
497149.581 5419336.2305 276.64025 75
497149.043 5419335.9235 276.80825 96
497148.341 5419334.9285 277.43025 71
497149.42 5419335.4605 277.12025 67
497148.501 5419336.3495 276.51025 81
497148.408 5419334.5885 277.63725 62
497148.31 5419336.3785 276.52025 72
497149.6 5419334.9405 277.47025 79
497148.447 5419335.0715 277.30025 54
497148.511 5419335.7185 276.93025 82
497148.531 5419334.4405 277.74025 77
497149.006 5419335.4405 277.13225 97
497149.533 5419333.1395 278.59125 55
497149.461 5419333.7905 278.20025 72
497149.61 5419334.2905 277.87025 83
497148.54 5419334.2185 277.85025 87
497147.595 5419333.6105 278.24025 80
497148.86 5419333.5425 278.33225 88
497148.36 5419333.9105 278.05025 70
497148.898 5419334.0145 278.02425 90
497149.57 5419333.6115 278.30325 57
497148.337 5419333.6395 278.20625 59
497148.35 5419334.1105 277.94025 70
497148.37 5419333.3095 278.45025 73
497147.557 5419333.1275 278.55825 81
497149.62 5419333.8705 278.14025 81
497148.296 5419333.1505 278.55025 58
497148.54 5419334.0195 278.01025 77
497149.62 5419334.0805 278.01025 84
497149.47 5419333.1705 278.57025 75
497148.826 5419333.0655 278.63225 93
497149.461 5419333.5805 278.31025 69
497148.56 5419333.0005 278.67025 87
497148.35 5419334.3215 277.81025 74
497147.63 5419334.0715 277.94925 81
497148.55 5419333.6105 278.27025 77
497149.47 5419333.3785 278.46025 70
497148.54 5419333.8095 278.12025 84
497149.451 5419334.1905 277.91025 69
497149.451 5419334.0005 278.06025 78
497148.55 5419333.1905 278.53025 75
497148.36 5419333.5195 278.34025 61
497148.372 5419334.1195 277.91825 54
497149.47 5419332.9685 278.71025 65
497149.607 5419334.0935 278.01425 50
497148.55 5419333.4005 278.40025 78
497148.36 5419333.7105 278.21025 64
497148.381 5419332.9205 278.71025 86
497148.37 5419333.1205 278.58025 72
497151.6 5419335.3305 277.30025 92
497151.781 5419334.5315 277.80025 83
497151.397 5419334.9575 277.51625 79
497150.68 5419334.8215 277.58025 81
497150.944 5419335.3035 277.25725 69
497150.521 5419334.7415 277.65025 79
497151.771 5419334.9685 277.52025 93
497150.501 5419335.6785 277.02025 76
497150.67 5419335.7815 276.96025 88
497150.501 5419335.4915 277.15025 75
497150.48 5419336.4605 276.52025 71
497151.36 5419334.4865 277.82225 85
497150.521 5419334.5315 277.75025 80
497150.511 5419335.1105 277.39025 77
497151.591 5419335.5315 277.16025 88
497150.521 5419334.9205 277.52025 86
497150.691 5419334.6205 277.72025 93
497150.979 5419335.7815 276.99525 65
497151.74 5419336.3095 276.67025 77
497151.761 5419335.4205 277.23025 82
497151.761 5419335.2005 277.39025 80
497150.907 5419334.8325 277.57625 67
497149.643 5419334.5595 277.68325 53
497150.531 5419334.3495 277.88025 78
497150.22 5419335.6275 277.06725 89
497151.6 5419335.1105 277.42025 91
497151.6 5419334.9005 277.54025 94
497151.61 5419334.4805 277.80025 87
497151.751 5419336.0885 276.79025 81
497149.68 5419335.0365 277.39625 49
497150.66 5419335.9915 276.85025 86
497151.017 5419336.2695 276.67325 59
497151.751 5419335.8705 276.96025 88
497149.718 5419335.5185 277.09125 51
497151.502 5419336.3435 276.63225 78
497151.74 5419336.5405 276.51025 77
497151.61 5419334.6905 277.69025 92
497151.761 5419335.6505 277.11025 84
497151.581 5419336.1605 276.74025 86
497151.581 5419335.9605 276.86025 90
497151.431 5419335.4105 277.22025 83
497150.49 5419335.8785 276.91025 80
497150.256 5419336.0715 276.75725 86
497151.591 5419335.7415 277.01025 90
497150.511 5419335.2985 277.26025 81
497150.289 5419336.5255 276.47325 85
497150.691 5419334.4285 277.83025 84
497151.467 5419335.8765 276.93725 88
497150.49 5419336.2695 276.67025 72
497150.189 5419335.1785 277.31425 97
497150.67 5419335.5995 277.10025 87
497151.771 5419334.7585 277.66025 84
497150.68 5419335.0085 277.46025 91
497150.869 5419334.3495 277.88025 68
497150.66 5419336.3785 276.59025 82
497150.49 5419336.0715 276.77025 69
497150.67 5419335.3895 277.21025 82
497149.754 5419335.9805 276.79725 52
497151.571 5419336.3895 276.62025 91
497149.789 5419336.4575 276.52325 48
497150.66 5419336.2005 276.77025 83
497150.68 5419335.2005 277.33025 94
497150.152 5419334.7185 277.63425 91
497146.243 5419332.4005 278.96525 90
497146.04 5419332.5485 278.88025 72
497147.22 5419332.5085 278.93025 76
497147.23 5419332.0995 279.16025 80
497146.18 5419332.6105 278.85025 67
497145.74 5419332.6535 278.76625 68
497147.36 5419332.5315 278.92025 86
497146.974 5419332.3035 279.04025 60
497146.191 5419332.4105 278.97025 75
497147.37 5419332.3215 279.02025 89
497146.18 5419332.8215 278.74025 2
497147.22 5419332.7005 278.78025 79
497146.273 5419332.8435 278.77925 1
497146.04 5419332.3305 278.96025 71
497147.36 5419332.7305 278.78025 85
497146.04 5419332.1395 279.10025 77
497146.191 5419332.2005 279.09025 81
497145.703 5419332.1735 279.07225 64
497147.22 5419332.3095 279.07025 72
497147.37 5419332.1105 279.15025 94
497146.011 5419334.1285 277.83025 55
497146.021 5419333.7305 278.09025 11
497146.347 5419333.7525 278.06425 22
497146.17 5419333.6205 278.16025 89
497146.031 5419332.7185 278.71025 5
497146.17 5419333.8305 278.03025 64
497147.35 5419333.5485 278.25025 86
497147.341 5419334.1785 277.87025 77
497147.088 5419333.7705 278.09125 56
497145.812 5419333.5885 278.18625 44
497147.341 5419333.9685 278.00025 76
497145.852 5419334.0715 277.84825 58
497146.011 5419333.9285 277.96025 61
497147.201 5419333.9005 278.01025 73
497147.35 5419333.3385 278.38025 81
497147.191 5419334.1105 277.88025 75
497147.125 5419334.2475 277.80325 61
497145.778 5419333.1165 278.45725 56
497147.36 5419333.1505 278.53025 82
497146.16 5419334.0405 277.90025 69
497147.201 5419333.5085 278.28025 75
497147.35 5419333.7585 278.13025 81
497147.211 5419333.0995 278.54025 72
497147.201 5419333.7005 278.14025 71
497146.38 5419334.2025 277.79825 76
497147.191 5419334.3215 277.78025 69
497147.211 5419333.2985 278.41025 75
497147.05 5419333.2815 278.40925 65
497147.015 5419332.7985 278.69725 61
497146.031 5419332.9405 278.62025 19
497147.36 5419332.9405 278.66025 82
497147.211 5419332.9005 278.66025 66
497146.16 5419334.2505 277.77025 68
497148.391 5419332.3305 279.09025 82
497148.788 5419332.5825 278.95925 57
497149.494 5419332.6565 278.92325 50
497148.391 5419332.1285 279.20025 80
497148.223 5419332.2075 279.13925 68
497148.56 5419332.8095 278.85025 60
497148.56 5419332.6105 278.98025 51
497149.48 5419332.5715 278.95025 69
497149.49 5419332.1705 279.23025 76
497148.571 5419332.4005 279.10025 41
497148.752 5419332.1165 279.24325 109
497148.381 5419332.7105 278.81025 66
497148.381 5419332.5195 278.95025 60
497149.48 5419332.7585 278.81025 76
497147.522 5419332.6455 278.85325 88
497148.571 5419332.1785 279.17025 98
497149.49 5419332.3605 279.08025 73
497149.458 5419332.1785 279.19925 64
497148.261 5419332.6845 278.83225 59
497147.485 5419332.1735 279.14225 94
497151.67 5419332.2415 279.24025 91
497151.81 5419333.0195 278.79025 96
497150.581 5419332.1505 279.28025 84
497151.184 5419332.1845 279.29325 92
497150.756 5419332.9115 278.80025 66
497150.571 5419332.3215 279.16025 91
497150.72 5419332.7415 278.89025 98
497150.72 5419332.9285 278.77025 84
497151.821 5419332.5805 279.03025 85
497150.571 5419332.6905 278.93025 81
497150.73 5419332.1905 279.25025 99
497151.651 5419332.8385 278.86025 100
497151.821 5419332.3785 279.18025 91
497151.66 5419332.4505 279.12025 97
497150.718 5419332.4235 279.11925 55
497150.571 5419332.5005 279.04025 79
497151.22 5419332.6395 278.96425 87
497149.641 5419332.8305 278.79025 83
497149.651 5419332.4105 279.07025 78
497150.73 5419332.5595 279.02025 90
497151.651 5419333.0485 278.74025 94
497150.56 5419332.8605 278.81025 77
497149.983 5419332.4855 279.03125 90
497150.017 5419332.9375 278.77125 89
497151.66 5419332.6395 279.00025 96
497150.73 5419332.3705 279.12025 94
497151.831 5419332.1705 279.32025 90
497149.651 5419332.2105 279.17025 93
497149.641 5419332.6285 278.95025 79
497151.81 5419332.7905 278.89025 96
497150.74 5419332.0085 279.35025 100
497150.591 5419331.4685 279.25025 66
497149.948 5419332.0365 279.31225 106
497151.691 5419331.1705 279.03025 71
497150.664 5419331.5145 279.30525 78
497150.654 5419331.1105 279.08225 78
497150.761 5419330.6705 278.75025 72
497150.751 5419331.2415 279.09025 78
497150.6 5419330.9005 278.89025 64
497151.148 5419331.3435 279.18025 120
497151.831 5419331.9685 279.48025 96
497149.909 5419330.8495 278.95225 118
497149.67 5419331.1605 279.09025 64
497151.68 5419331.8305 279.47025 77
497151.141 5419330.9575 278.96625 112
497149.917 5419331.2355 279.18025 119
497150.647 5419330.7075 278.80825 87
497150.682 5419331.9505 279.37525 55
497151.67 5419332.0315 279.36025 97
497151.68 5419331.4915 279.23025 77
497149.66 5419331.5005 279.30025 61
497151.153 5419331.7345 279.48525 99
497151.691 5419330.8385 278.84025 60
497149.67 5419330.8305 278.88025 61
497150.6 5419331.1785 279.07025 59
497150.751 5419331.5315 279.28025 67
497149.651 5419332.0085 279.33025 81
497150.581 5419331.9605 279.38025 76
497150.591 5419331.7815 279.47025 69
497149.66 5419331.8215 279.49025 79
497150.74 5419331.8495 279.52025 92
497151.85 5419330.9605 278.88025 67
497151.841 5419331.6605 279.33025 70
497150.751 5419330.9605 278.93025 73
497149.924 5419331.6195 279.42525 103
497151.841 5419331.3095 279.12025 73
497151.13 5419330.5545 278.76925 9
497152.771 5419331.4285 279.16025 82
497153.105 5419330.9235 278.87425 73
497152.92 5419331.0595 278.92025 65
497152.751 5419332.0315 279.47025 87
497152.761 5419331.7415 279.36025 70
497153.114 5419331.3185 279.12725 74
497153.122 5419331.7305 279.37025 68
497151.92 5419331.5365 279.30825 92
497153.99 5419332.0195 279.50025 81
497152.91 5419331.3895 279.13025 58
497153.659 5419331.8605 279.49025 97
497152.404 5419331.1335 279.02925 129
497152.91 5419331.7105 279.33025 57
497151.904 5419330.7445 278.78825 77
497152.419 5419331.9115 279.53425 107
497152.901 5419332.0195 279.48025 83
497153.646 5419331.0715 278.94625 113
497154.001 5419331.3705 279.11025 74
497152.781 5419330.7815 278.75025 79
497153.85 5419331.0405 278.91025 67
497151.934 5419331.9465 279.47825 57
497153.831 5419331.6785 279.30025 68
497154.001 5419331.6905 279.29025 66
497153.831 5419332.0085 279.53025 76
497151.913 5419331.1335 279.05525 84
497152.771 5419331.0995 278.96025 78
497152.397 5419330.7355 278.78125 132
497154.011 5419331.0405 278.88025 68
497152.412 5419331.5195 279.26925 124
497153.654 5419331.4775 279.18225 114
497153.841 5419331.3705 279.12025 71
497153.97 5419333.0315 278.82025 89
497152.901 5419332.2185 279.33025 93
497153.689 5419332.3155 279.30025 90
497153.821 5419332.1905 279.35025 90
497153.97 5419332.8305 278.97025 89
497153.218 5419333.1165 278.77125 48
497153.81 5419332.5995 279.11025 87
497153.182 5419332.6395 279.05225 56
497152.74 5419332.8095 278.93025 99
497153.146 5419332.1705 279.34825 57
497153.98 5419332.6285 279.11025 83
497153.81 5419332.7905 278.98025 90
497152.458 5419332.3935 279.17125 97
497152.891 5419332.6205 279.06025 75
497152.73 5419333.0085 278.80025 106
497152.74 5419332.6205 279.08025 90
497153.98 5419332.4105 279.21025 97
497153.821 5419332.4005 279.22025 85
497152.008 5419332.8865 278.84825 70
497153.961 5419333.2415 278.72025 82
497153.99 5419332.2185 279.34025 88
497152.751 5419332.4205 279.20025 111
497152.881 5419332.8385 278.94025 90
497151.972 5419332.4115 279.13725 72
497152.751 5419332.2105 279.30025 103
497152.891 5419332.4205 279.19025 89
497152.881 5419333.0315 278.80025 83
497153.727 5419332.7985 278.96825 75
497153.8 5419332.9915 278.83025 73
497153.8 5419333.2005 278.73025 76
497152.49 5419332.8495 278.93025 88
497153.951 5419333.6505 278.44025 89
497152.881 5419333.2505 278.67025 82
497153.79 5419333.5885 278.46025 88
497152.528 5419333.3155 278.57725 97
497153.295 5419334.0655 278.16325 55
497153.799 5419333.7305 278.37725 85
497152.86 5419333.8705 278.27025 83
497152.083 5419333.8215 278.22625 70
497153.951 5419334.0715 278.16025 80
497153.762 5419333.2585 278.66525 75
497152.711 5419333.8215 278.29025 108
497153.781 5419334.0005 278.19025 81
497152.86 5419334.0885 278.14025 80
497152.711 5419334.0195 278.15025 94
497153.771 5419334.2005 278.05025 82
497152.72 5419333.4205 278.56025 111
497153.951 5419333.8605 278.31025 74
497153.941 5419334.2695 278.03025 85
497152.12 5419334.2985 277.94425 67
497153.781 5419333.7985 278.33025 80
497152.72 5419333.6105 278.42025 124
497152.599 5419334.2445 278.03625 92
497153.26 5419333.5995 278.42725 55
497153.79 5419333.3895 278.59025 83
497152.565 5419333.7815 278.30725 103
497153.836 5419334.2075 278.06925 84
497152.046 5419333.3605 278.54725 66
497152.85 5419334.2905 277.99025 85
497152.87 5419333.4505 278.53025 81
497152.73 5419333.2305 278.71025 98
497153.961 5419333.4505 278.57025 80
497152.701 5419334.2305 278.03025 92
497152.87 5419333.6785 278.42025 79
497152.821 5419335.5805 277.17025 76
497153.91 5419335.7695 277.08025 80
497152.67 5419335.1735 277.44025 87
497152.157 5419334.7695 277.64425 61
497152.821 5419336.0085 276.90025 76
497152.68 5419335.2585 277.37025 89
497153.371 5419335.0285 277.52625 51
497152.651 5419336.3095 276.68025 93
497153.92 5419335.1205 277.49025 90
497152.821 5419335.7985 277.04025 79
497152.706 5419335.6435 277.13925 79
497152.267 5419336.1785 276.76325 65
497153.941 5419334.4805 277.90025 83
497153.406 5419335.5035 277.26425 51
497153.891 5419336.4285 276.68025 82
497152.691 5419334.8495 277.63025 92
497152.85 5419334.5085 277.86025 76
497152.743 5419336.1165 276.82225 96
497152.67 5419335.4685 277.23025 88
497152.651 5419336.5195 276.56025 102
497152.66 5419336.0995 276.82025 87
497153.901 5419335.9805 276.93025 83
497153.978 5419336.0715 276.89225 75
497153.445 5419335.9775 276.93325 50
497152.81 5419336.2305 276.76025 79
497152.192 5419335.2305 277.35525 62
497153.901 5419336.2005 276.80025 87
497153.91 5419335.5595 277.22025 82
497153.87 5419334.6615 277.79825 80
497153.333 5419334.5485 277.84425 50
497152.701 5419334.4285 277.89025 103
497152.691 5419334.6395 277.76025 91
497153.73 5419335.8705 277.02025 84
497153.92 5419335.3385 277.35025 84
497152.229 5419335.7075 277.05525 66
497154.013 5419336.5485 276.60025 85
497153.74 5419335.2505 277.43025 80
497153.72 5419336.2985 276.75025 81
497152.636 5419334.7185 277.72325 97
497153.751 5419335.0315 277.55025 88
497153.73 5419335.6605 277.14025 91
497153.93 5419334.7005 277.77025 76
497153.72 5419336.0885 276.88025 87
497153.761 5419334.6285 277.82025 75
497153.74 5419335.4405 277.27025 86
497153.771 5419334.4205 277.95025 76
497152.778 5419336.5715 276.53325 91
497152.841 5419334.7185 277.72025 74
497152.841 5419334.9405 277.60025 80
497153.93 5419334.9105 277.64025 85
497152.66 5419335.8785 276.96025 97
497153.711 5419336.5005 276.59025 83
497152.831 5419335.1605 277.47025 88
497153.761 5419334.8305 277.69025 83
497153.483 5419336.4575 276.61825 58
497152.81 5419336.4505 276.61025 83
497153.942 5419335.6115 277.19925 84
497152.831 5419335.3495 277.30025 76
497152.67 5419335.6785 277.10025 89
497152.68 5419335.0595 277.51025 90
497153.589 5419328.2645 277.17325 109
497153.615 5419329.4695 277.93225 110
497153.078 5419329.7105 278.10625 79
497151.881 5419329.2695 277.82025 67
497152.8 5419329.5005 277.95025 78
497151.891 5419328.2585 277.19025 65
497154.05 5419328.7585 277.45025 69
497154.031 5419329.7185 278.03025 69
497152.841 5419327.6285 276.80025 83
497154.04 5419329.0715 277.63025 71
497152.36 5419328.7695 277.50725 120
497153.608 5419329.0655 277.65925 112
497152.341 5419327.9605 277.03425 116
497153.881 5419329.4405 277.87025 68
497154.05 5419328.4285 277.22025 70
497151.881 5419328.9405 277.63025 65
497154.06 5419328.0995 277.03025 72
497153.891 5419328.8095 277.47025 68
497153.581 5419327.8555 276.94025 105
497152.831 5419327.9285 276.96025 76
497151.891 5419328.5995 277.40025 66
497152.961 5419328.4405 277.28025 67
497153.881 5419329.1205 277.66025 70
497153.032 5419327.6615 276.86325 99
497154.071 5419327.7985 276.84025 69
497153.91 5419327.8605 276.89025 58
497152.951 5419329.0885 277.68025 64
497152.821 5419328.5485 277.35025 76
497152.961 5419328.7585 277.48025 61
497152.81 5419329.1785 277.74025 71
497153.87 5419329.7585 278.07025 69
497152.97 5419328.1205 277.06025 58
497151.901 5419327.9205 276.96025 70
497152.349 5419328.3605 277.29225 115
497152.81 5419328.8605 277.53025 73
497152.941 5419329.7305 278.07025 70
497152.374 5419329.5535 278.02425 119
497152.365 5419329.1505 277.78325 118
497151.901 5419327.6105 276.81025 81
497153.598 5419328.6605 277.42525 105
497152.8 5419329.8215 278.16025 70
497153.901 5419328.1705 277.06025 66
497152.951 5419329.4205 277.88025 62
497153.043 5419328.0765 277.07925 71
497153.061 5419328.8895 277.58525 69
497151.879 5419329.5315 278.02125 84
497152.831 5419328.2305 277.15025 76
497152.97 5419327.7985 276.87025 59
497154.04 5419329.3895 277.84025 68
497153.07 5419329.2985 277.85825 77
497153.053 5419328.4915 277.32125 75
497153.901 5419328.4915 277.27025 73
497151.701 5419330.5005 278.60025 64
497151.85 5419330.6205 278.67025 67
497150.61 5419330.5995 278.71025 60
497150.761 5419330.3705 278.57025 70
497149.897 5419330.0995 278.41525 132
497150.638 5419330.2955 278.54125 81
497150.771 5419330.0805 278.38025 72
497150.61 5419330.3215 278.52025 58
497150.62 5419330.0315 278.33025 62
497149.691 5419329.8385 278.26025 70
497151.86 5419330.2815 278.46025 69
497151.711 5419330.2005 278.42025 68
497151.126 5419330.1675 278.44725 45
497149.68 5419330.5085 278.68025 64
497149.901 5419330.4635 278.71425 131
497150.631 5419329.8955 278.27625 82
497151.86 5419329.9405 278.25025 70
497149.68 5419330.1705 278.46025 67
497151.711 5419329.8705 278.22025 68
497152.382 5419329.9575 278.25225 122
497153.63 5419330.2645 278.44425 119
497153.621 5419329.8725 278.19725 115
497154.021 5419330.3705 278.44025 73
497152.781 5419330.4605 278.57025 79
497152.941 5419330.0715 278.30025 61
497153.088 5419330.1055 278.35825 73
497152.93 5419330.4005 278.51025 65
497151.894 5419330.3385 278.55525 80
497151.886 5419329.9335 278.31225 86
497152.387 5419330.3385 278.54125 124
497153.637 5419330.6735 278.69925 114
497154.031 5419330.0485 278.26025 73
497153.095 5419330.5145 278.62525 76
497152.92 5419330.7185 278.71025 62
497152.79 5419330.1395 278.35025 75
497153.87 5419330.0805 278.29025 71
497154.011 5419330.7005 278.67025 71
497153.85 5419330.7185 278.68025 69
497153.86 5419330.3895 278.47025 69
497151.088 5419328.2015 277.19525 122
497149.881 5419329.3215 277.95425 119
497150.631 5419329.4505 277.96025 60
497149.701 5419329.1785 277.82025 69
497150.79 5419328.6285 277.44025 74
497150.79 5419328.9205 277.63025 70
497149.691 5419329.5085 278.04025 65
497150.586 5419327.8435 276.98625 76
497149.858 5419328.1675 277.24725 113
497151.751 5419327.9605 277.00025 72
497150.8 5419327.7905 276.92025 74
497151.74 5419328.5885 277.41025 74
497149.701 5419328.8605 277.63025 65
497151.73 5419328.9105 277.59025 72
497150.651 5419328.0405 277.07025 59
497150.66 5419327.7585 276.90025 57
497149.849 5419327.7815 276.98525 115
497150.8 5419328.0715 277.09025 78
497151.11 5419329.3865 277.94925 108
497151.861 5419328.7355 277.50925 94
497150.604 5419328.6675 277.51925 77
497151.104 5419328.9855 277.69725 120
497150.611 5419329.0685 277.79125 72
497149.888 5419329.7075 278.19425 125
497151.74 5419328.2695 277.19025 73
497151.08 5419327.8035 276.93725 112
497151.72 5419329.5485 278.01025 69
497149.72 5419327.9005 277.03025 59
497149.72 5419327.5805 276.84025 62
497150.8 5419328.3495 277.26025 78
497149.711 5419328.2105 277.21025 64
497150.781 5419329.5005 278.01025 73
497149.865 5419328.5545 277.48525 121
497150.781 5419329.2105 277.81025 74
497150.62 5419329.7415 278.16025 59
497151.116 5419329.7815 278.23325 68
497150.771 5419329.7905 278.20025 68
497149.711 5419328.5405 277.43025 74
497150.641 5419328.8895 277.62025 65
497151.72 5419329.2305 277.80025 72
497150.621 5419329.4855 278.01425 79
497151.751 5419327.6505 276.83025 91
497151.843 5419327.9205 277.01025 82
497151.85 5419328.3265 277.28125 92
497149.872 5419328.9345 277.71625 116
497150.594 5419328.2525 277.27125 77
497151.095 5419328.5885 277.44625 119
497150.631 5419329.1785 277.81025 65
497150.651 5419328.3305 277.25025 61
497150.641 5419328.5995 277.42025 61
497151.87 5419329.1395 277.79525 89
497151.87 5419329.6105 278.04025 67
497156.094 5419332.3325 279.34525 92
497156.071 5419333.1705 278.80025 81
497155.04 5419332.1285 279.47025 77
497154.937 5419332.9285 278.89625 102
497156.091 5419332.3495 279.32025 83
497155.93 5419333.1105 278.83025 93
497155.951 5419332.5085 279.21025 102
497156.131 5419332.7925 279.04825 83
497155.961 5419332.1285 279.49025 97
497154.86 5419332.9405 278.91025 81
497156.1 5419332.1605 279.49025 76
497154.881 5419332.1505 279.43025 80
497155.951 5419332.2985 279.32025 108
497155.031 5419332.5195 279.17025 90
497154.902 5419332.4635 279.20625 100
497154.86 5419332.7415 279.03025 78
497154.87 5419332.5405 279.15025 90
497155.941 5419332.9105 278.95025 105
497155.021 5419332.9405 278.91025 89
497155.602 5419332.6965 279.08525 55
497155.011 5419333.1505 278.77025 80
497156.081 5419332.9605 278.92025 82
497154.377 5419332.3325 279.28825 65
497156.081 5419332.7585 279.08025 86
497155.941 5419332.7185 279.10025 91
497154.87 5419332.3495 279.30025 90
497155.565 5419332.2135 279.37225 54
497155.031 5419332.3305 279.30025 85
497154.415 5419332.8155 278.97625 75
497154.85 5419333.1395 278.79025 85
497155.64 5419333.1845 278.77925 55
497156.164 5419333.2415 278.75525 88
497156.091 5419332.5485 279.19025 88
497155.021 5419332.7305 279.03025 83
497155.97 5419331.4915 279.10025 79
497154.858 5419331.5775 279.24525 130
497156.065 5419331.5145 279.15425 119
497155.06 5419330.8385 278.73025 62
497154.85 5419331.1905 278.98525 130
497154.339 5419331.4575 279.18325 91
497156.12 5419331.1785 278.91025 71
497155.98 5419331.1705 278.90025 77
497155.535 5419331.3695 279.09625 79
497154.331 5419331.0595 278.93725 106
497156.055 5419331.1195 278.91825 110
497156.1 5419331.8495 279.32025 64
497154.864 5419331.9805 279.54325 114
497154.901 5419330.9285 278.79025 77
497155.04 5419331.8385 279.36025 58
497156.072 5419331.9005 279.41325 96
497155.528 5419330.9575 278.82125 86
497154.881 5419331.9105 279.42025 57
497155.05 5419331.1785 278.94025 65
497155.05 5419331.5005 279.13025 69
497154.891 5419331.2505 279.00025 76
497155.545 5419331.7865 279.34625 68
497154.348 5419331.8695 279.44725 80
497154.843 5419330.7815 278.71925 137
497155.97 5419331.8095 279.31025 69
497156.11 5419331.5085 279.09025 70
497154.891 5419331.5805 279.20025 72
497155.92 5419333.7185 278.45025 87
497154.974 5419333.4115 278.59625 99
497155.714 5419334.1455 278.16625 53
497155.011 5419333.8895 278.30225 87
497156.06 5419333.5805 278.54025 84
497156.235 5419334.1675 278.17025 84
497154.841 5419333.3385 278.64025 86
497156.071 5419333.3785 278.68025 91
497155.678 5419333.6735 278.48025 60
497154.841 5419333.5315 278.52025 84
497155.011 5419333.3495 278.63025 82
497154.99 5419334.0005 278.25025 86
497155.91 5419334.1285 278.19025 94
497155.91 5419333.9285 278.32025 88
497154.821 5419334.1505 278.14025 78
497155.93 5419333.3215 278.71025 100
497156.201 5419333.7025 278.46025 84
497156.05 5419334.0005 278.27025 75
497156.06 5419333.7815 278.39025 85
497154.831 5419333.9405 278.27025 85
497156.05 5419334.2105 278.14025 79
497154.99 5419334.2005 278.11025 86
497155.92 5419333.5195 278.58025 97
497154.455 5419333.2915 278.64925 64
497155.001 5419333.5715 278.51025 91
497154.49 5419333.7695 278.38025 72
497154.831 5419333.7415 278.39025 78
497154.528 5419334.2525 278.06225 69
497155.001 5419333.7815 278.37025 89
497156.269 5419334.6105 277.88425 82
497154.8 5419335.1785 277.49025 83
497154.679 5419336.1775 276.85525 67
497156.04 5419334.4205 277.99025 86
497156.021 5419335.2815 277.46025 88
497155.841 5419336.4285 276.75025 100
497155.827 5419335.5935 277.27625 54
497156.011 5419335.4915 277.30025 86
497154.79 5419335.3785 277.35025 73
497154.97 5419335.0485 277.56025 81
497155.86 5419335.5885 277.27025 101
497155.85 5419336.0005 276.99025 92
497155.755 5419334.6395 277.84325 54
497155.083 5419334.8325 277.70725 96
497155.195 5419336.2755 276.78125 90
497154.761 5419336.4285 276.68025 88
497155.85 5419336.2305 276.90025 97
497154.781 5419335.5805 277.21025 80
497155.792 5419335.1225 277.55025 60
497155.868 5419336.0885 276.93625 51
497155.881 5419335.1605 277.53025 90
497155.119 5419335.3095 277.42725 92
497154.781 5419335.7985 277.09025 85
497154.771 5419336.2185 276.81025 85
497154.81 5419334.7585 277.75025 77
497154.98 5419334.6285 277.83025 93
497154.641 5419335.6905 277.15925 72
497154.961 5419335.2815 277.44025 93
497155.891 5419334.5405 277.94025 90
497155.86 5419335.7905 277.12025 100
497155.156 5419335.7915 277.12925 97
497154.961 5419335.4805 277.28025 81
497156.001 5419336.1395 276.91025 84
497155.99 5419336.5715 276.63025 83
497155.901 5419334.3385 278.05025 91
497156.001 5419335.9205 277.05025 88
497156.031 5419335.0715 277.63025 84
497156.011 5419335.7105 277.19025 80
497155.891 5419334.7585 277.81025 93
497154.8 5419334.9605 277.62025 85
497156.04 5419334.6285 277.85025 88
497154.941 5419336.3605 276.74025 84
497154.97 5419334.8305 277.69025 94
497155.99 5419336.3605 276.79025 85
497156.305 5419335.0715 277.60825 86
497156.341 5419335.5365 277.30725 77
497155.881 5419334.9605 277.66025 100
497155.87 5419335.3785 277.41025 97
497154.604 5419335.2075 277.46325 71
497154.566 5419334.7355 277.77625 73
497154.951 5419335.9205 277.01025 81
497154.941 5419336.1395 276.89025 82
497155.045 5419334.3665 278.02125 94
497154.98 5419334.4205 277.99025 94
497154.81 5419334.5595 277.88025 78
497154.771 5419336.0085 276.94025 87
497156.031 5419334.8495 277.73025 82
497156.375 5419335.9805 277.02325 82
497154.821 5419334.3605 278.02025 82
497154.951 5419335.7005 277.13025 91
497154.91 5419330.6105 278.57025 69
497155.99 5419330.8495 278.71025 78
497154.827 5419329.9745 278.23025 132
497154.91 5419330.2905 278.38025 74
497156.141 5419329.8705 278.06025 87
497155.518 5419330.5455 278.55325 77
497156.049 5419330.7415 278.68225 55
497155.081 5419329.8385 278.08025 65
497154.322 5419330.6565 278.65625 93
497156.043 5419330.3495 278.39825 56
497155.511 5419330.1445 278.28125 79
497155.071 5419330.5085 278.52025 64
497156.001 5419329.8705 278.05025 25
497155.071 5419330.1785 278.32025 62
497154.305 5419329.8435 278.13525 97
497156.12 5419330.8495 278.69025 67
497154.92 5419329.9685 278.18025 73
497156.034 5419329.9525 278.17525 94
497154.834 5419330.3725 278.47025 137
497154.314 5419330.2415 278.40825 96
497150.81 5419327.5195 276.79025 84
497150.577 5419327.4405 276.72825 70
497151.07 5419327.3945 276.72825 109
497150.566 5419327.0145 276.50525 76
497150.81 5419327.2305 276.59025 72
497150.66 5419327.5195 276.79025 59
497149.833 5419327.0085 276.52925 104
497151.833 5419327.5255 276.77825 87
497151.825 5419327.1165 276.51425 78
497149.73 5419327.2585 276.64025 65
497149.842 5419327.4035 276.76225 121
497151.062 5419326.9975 276.47125 17
497151.761 5419327.3385 276.65025 69
497150.67 5419327.2105 276.55025 55
497150.68 5419326.3895 276.04025 21
497150.701 5419325.3305 275.41025 58
497151.761 5419327.0195 276.42025 1
497150.701 5419325.5995 275.56025 42
497150.67 5419326.9285 276.37025 7
497150.557 5419326.6025 276.23525 78
497149.827 5419326.6265 276.25025 121
497149.74 5419326.2985 276.03025 55
497150.841 5419325.7105 275.36025 16
497149.811 5419325.8495 275.80325 112
497149.804 5419325.4575 275.56125 113
497149.74 5419326.6205 276.24025 64
497149.73 5419326.9405 276.43025 58
497150.549 5419326.1835 275.98925 74
497150.841 5419325.3605 275.51025 116
497149.751 5419325.9915 275.83025 66
497150.691 5419326.1205 275.88025 32
497150.531 5419325.3555 275.47325 73
497150.68 5419326.6905 276.27025 13
497149.821 5419326.2445 276.02125 114
497150.841 5419325.5405 275.46025 86
497150.543 5419325.7815 275.68325 79
497149.761 5419325.3605 275.44025 58
497151.028 5419325.4005 275.54125 123
497149.751 5419325.6785 275.64025 66
497150.691 5419325.8495 275.72025 39
497154.071 5419327.4805 276.63025 60
497151.91 5419327.2695 276.58025 61
497152.325 5419327.1675 276.55025 118
497153.92 5419327.2505 276.51025 55
497152.98 5419327.4805 276.68025 47
497152.98 5419327.1605 276.49025 24
497152.333 5419327.5715 276.80325 116
497152.841 5419327.2985 276.57025 76
497153.573 5419327.4465 276.67525 109
497154.081 5419327.1705 276.48025 11
497153.91 5419327.5715 276.73025 53
497153.024 5419327.2525 276.56725 69
497153.031 5419324.3305 274.68025 55
497153.04 5419324.0315 274.50025 58
497152.261 5419323.9515 274.53325 128
497153.517 5419324.6105 274.90125 105
497152.963 5419325.1615 275.61425 51
497152.891 5419325.0715 275.60025 125
497153.98 5419324.1785 274.56025 73
497153.021 5419325.1785 275.65025 101
497153.51 5419324.1965 274.63225 120
497152.278 5419324.7525 275.00525 13
497151.951 5419324.8495 274.79025 24
497152.901 5419324.2305 274.63025 81
497153.961 5419325.1205 275.22025 107
497152.952 5419323.9635 274.51425 73
497153.97 5419324.4805 274.74025 76
497153.97 5419324.9205 275.30025 34
497152.97 5419324.7865 275.01425 3
497152.271 5419324.3605 274.76425 144
497151.951 5419324.6395 274.87025 2
497152.255 5419323.5485 274.24725 124
497154.12 5419324.3385 274.66025 72
497153.99 5419323.5995 274.22025 65
497151.961 5419324.0315 274.55025 67
497153.527 5419325.0145 275.12025 110
497154.12 5419324.6395 274.84025 17
497153.021 5419324.9205 275.58025 86
497153.501 5419323.7865 274.37025 122
497154.11 5419325.0315 275.23025 109
497152.91 5419323.9285 274.46025 80
497153.99 5419323.8705 274.35025 67
497152.891 5419324.8305 275.58025 85
497152.91 5419323.6205 274.24025 74
497151.961 5419324.3385 274.73025 67
497154.11 5419325.2305 275.13025 85
497152.963 5419324.3695 274.75025 87
497152.944 5419323.5425 274.24025 79
497151.97 5419323.7105 274.34025 70
497153.04 5419323.7105 274.28025 53
497151.023 5419325.0025 275.22325 50
497149.771 5419324.7415 275.05025 59
497149.631 5419323.9105 274.55025 54
497151.821 5419323.9405 274.50025 72
497150.87 5419323.7005 274.38025 73
497149.781 5419323.8215 274.50025 70
497151.773 5419324.6785 274.97125 4
497150.85 5419324.8385 275.21025 64
497150.85 5419324.6505 275.26025 38
497149.631 5419324.2105 274.72025 51
497149.796 5419325.0765 275.32025 114
497149.765 5419323.4975 274.34625 117
497150.72 5419324.2505 274.71025 66
497150.496 5419323.6845 274.41325 70
497149.761 5419325.0595 275.26025 57
497151.007 5419324.2015 274.73125 118
497149.789 5419324.6835 275.07725 112
497151.769 5419325.0595 275.47625 80
497151.81 5419324.5195 274.83025 18
497150.86 5419323.9685 274.55025 79
497150.711 5419325.0715 275.27025 66
497150.505 5419324.1105 274.67725 77
497150.73 5419323.7305 274.38025 65
497151.8 5419324.8385 275.03025 6
497149.641 5419323.6205 274.38025 59
497151.746 5419323.4505 274.22325 88
497150.991 5419323.3895 274.22025 123
497150.85 5419325.1105 275.39025 82
497150.523 5419324.9375 275.19725 75
497150.711 5419324.7815 275.06025 54
497151.016 5419324.5995 274.97325 66
497151.831 5419323.6205 274.28025 68
497150.512 5419324.5185 274.93925 80
497150.72 5419324.5315 274.90025 54
497149.79 5419323.5085 274.31025 62
497149.781 5419324.1205 274.68025 67
497149.771 5419324.4405 274.89025 61
497150.74 5419323.4685 274.23025 64
497149.773 5419323.8935 274.58825 128
497151.755 5419323.8605 274.47825 90
497150.73 5419323.9805 274.54025 64
497151.001 5419323.7985 274.45725 124
497149.782 5419324.2865 274.81125 122
497151.762 5419324.2615 274.74525 96
497150.86 5419324.2305 274.71025 72
497151.81 5419324.2305 274.68025 72
497154.1 5419325.6785 275.10025 48
497153.93 5419326.9605 276.38025 47
497153.55 5419326.2305 275.92225 110
497153.557 5419326.6395 276.18025 106
497153.535 5419325.4285 275.37025 106
497153.543 5419325.8385 275.65325 109
497153.961 5419325.3495 275.22025 67
497153.566 5419327.0535 276.42325 98
497147.385 5419337.6335 275.69425 56
497149.54 5419338.4685 275.25025 81
497148.47 5419338.1505 275.47025 22
497148.47 5419338.3785 275.38025 27
497149.115 5419336.8725 276.19725 81
497147.461 5419338.6025 275.06525 62
497148.48 5419337.4685 275.89025 19
497148.49 5419337.0195 276.14025 73
497149.55 5419337.7815 275.64025 80
497149.224 5419338.3155 275.32025 91
497148.29 5419337.0085 276.11025 47
497148.461 5419338.5595 275.13025 53
497149.37 5419338.0485 275.48025 82
497149.54 5419338.2415 275.38025 75
497148.29 5419337.4405 275.81025 1
497148.261 5419338.5085 275.15025 17
497149.56 5419337.3385 275.96025 77
497148.665 5419337.9465 275.56225 2
497149.56 5419337.1105 276.07025 69
497148.702 5419338.4165 275.25225 18
497149.36 5419338.5005 275.22025 78
497148.271 5419338.0805 275.43025 2
497148.48 5419337.9105 275.60025 19
497148.593 5419336.9845 276.12525 40
497149.391 5419337.1705 276.03025 74
497148.271 5419338.3095 275.35025 4
497148.261 5419338.7415 275.05025 65
497149.37 5419337.8305 275.63025 69
497147.948 5419338.3385 275.31725 28
497149.186 5419337.8325 275.62225 91
497149.55 5419338.0085 275.49025 81
497148.3 5419336.7985 276.22025 76
497149.54 5419338.7005 275.09025 78
497149.391 5419336.9505 276.18025 74
497147.844 5419336.9205 276.15425 77
497149.36 5419338.2695 275.34025 73
497149.56 5419337.5715 275.82025 81
497148.281 5419337.8705 275.57025 1
497148.281 5419337.6505 275.71025 2
497149.381 5419337.3895 275.90025 71
497148.49 5419337.2695 276.06025 5
497148.29 5419337.2415 276.02025 2
497149.152 5419337.3555 275.90125 89
497148.3 5419336.5885 276.36025 72
497149.35 5419338.7185 275.08025 71
497149.571 5419336.8895 276.22025 87
497148.49 5419336.7905 276.25025 94
497149.571 5419336.6705 276.35025 85
497149.258 5419338.7855 275.02125 93
497148.461 5419338.7905 274.98025 75
497147.423 5419338.1225 275.38025 54
497149.381 5419337.6105 275.77025 67
497149.401 5419336.7415 276.32025 71
497148.48 5419337.7005 275.76025 20
497149.401 5419336.5195 276.44025 71
497148.557 5419336.5085 276.39325 56
497148.501 5419336.5715 276.39025 86
497159.735 5419334.3445 278.20225 75
497159.131 5419336.1205 277.03025 85
497160.18 5419335.2005 277.66025 105
497159.141 5419335.9005 277.16025 106
497160.011 5419335.3095 277.59025 96
497159.18 5419334.4105 278.12025 94
497160.16 5419335.8495 277.27025 109
497160.17 5419335.6205 277.38025 105
497158.678 5419335.1275 277.63225 74
497160.211 5419334.3495 278.21025 105
497160.031 5419334.7005 278.01025 93
497158.97 5419335.5885 277.37025 79
497158.98 5419335.1705 277.63025 85
497160.458 5419334.8035 277.91825 61
497160.191 5419334.9915 277.83025 110
497159.396 5419336.0825 277.07625 55
497159.843 5419335.7755 277.30825 78
497158.746 5419336.0545 277.08825 85
497160.151 5419336.2815 276.99025 115
497160.17 5419335.4105 277.52025 111
497159.16 5419335.2585 277.58025 88
497160.42 5419334.3435 278.22625 93
497158.99 5419334.7505 277.87025 81
497158.97 5419335.3705 277.48025 83
497160.04 5419334.4915 278.10025 102
497160.16 5419336.0595 277.11025 119
497158.784 5419336.5285 276.76425 77
497159.434 5419336.5485 276.75025 55
497159.16 5419335.0405 277.71025 94
497160.001 5419335.7415 277.33025 91
497159.98 5419336.3705 276.93025 96
497160.141 5419336.5005 276.83025 93
497159.98 5419336.1605 277.07025 90
497158.713 5419335.5935 277.33825 88
497159.12 5419336.5595 276.75025 98
497159.151 5419335.4805 277.44025 92
497159.131 5419336.3385 276.90025 90
497158.961 5419335.7905 277.23025 79
497159.81 5419335.2985 277.57725 69
497159.882 5419336.2585 276.96825 79
497160.497 5419335.2865 277.58225 2
497158.951 5419336.0005 277.10025 76
497159.011 5419334.3385 278.15025 81
497159.141 5419335.6905 277.32025 94
497159.17 5419334.6205 277.99025 100
497158.941 5419336.4285 276.83025 83
497159.772 5419334.8125 277.88825 79
497160.021 5419335.1105 277.72025 92
497159.359 5419335.5995 277.36125 58
497159.17 5419334.8385 277.86025 103
497160.001 5419335.5315 277.47025 91
497158.99 5419334.9605 277.74025 82
497159.99 5419335.9285 277.17025 102
497159.285 5419334.6605 277.94225 55
497160.021 5419334.9105 277.87025 93
497159.322 5419335.1265 277.64925 55
497160.191 5419334.7695 277.94025 102
497158.951 5419336.2185 276.96025 77
497160.201 5419334.5485 278.07025 105
497159.001 5419334.5485 278.03025 80
497158.643 5419334.6705 277.92225 85
497158.081 5419334.0595 278.24725 1
497158.039 5419333.5655 278.62725 1
497157.97 5419333.5085 278.69025 21
497157.951 5419334.1105 278.28025 34
497158.11 5419334.0995 278.30025 66
497158.571 5419333.7355 278.51925 86
497156.91 5419334.0315 278.28025 92
497157.081 5419334.1105 278.24025 73
497157.091 5419333.6905 278.50025 70
497157.387 5419333.6225 278.58125 94
497156.92 5419333.8305 278.40025 92
497157.961 5419333.7105 278.55025 38
497157.421 5419334.0885 278.28625 61
497156.92 5419333.6285 278.54025 100
497157.1 5419333.4805 278.63025 82
497158.11 5419333.8895 278.43025 60
497157.941 5419334.3215 278.15025 45
497157.071 5419334.3095 278.08025 75
497158.131 5419333.4685 278.69025 80
497158.12 5419333.6785 278.56025 62
497158.607 5419334.2025 278.21125 82
497157.951 5419333.9205 278.43025 33
497156.957 5419333.8725 278.38425 53
497158.1 5419334.3095 278.16025 62
497157.081 5419333.9105 278.40025 74
497156.91 5419334.2505 278.18025 91
497156.93 5419333.4285 278.68025 103
497156.92 5419333.3955 278.67225 53
497159.191 5419333.9915 278.39025 94
497159.011 5419334.1395 278.27025 80
497159.247 5419334.1785 278.24925 56
497159.031 5419333.5315 278.68025 77
497160.211 5419334.1395 278.36025 101
497160.04 5419334.2905 278.25025 99
497159.209 5419333.6965 278.57425 61
497160.05 5419334.0805 278.39025 90
497159.201 5419333.5715 278.67025 92
497160.06 5419333.6785 278.64025 101
497160.22 5419333.9205 278.47025 98
497159.021 5419333.9405 278.42025 81
497160.05 5419333.8785 278.51025 91
497160.385 5419333.8665 278.51425 78
497159.191 5419334.1905 278.24025 91
497159.7 5419333.8695 278.47625 78
497159.021 5419333.7305 278.56025 79
497160.22 5419333.7185 278.62025 97
497159.201 5419333.7815 278.52025 84
497157.142 5419336.2245 276.88225 52
497157.021 5419336.4685 276.73025 83
497157.05 5419335.3785 277.44025 84
497157.891 5419335.9915 277.10025 93
497157.93 5419334.7305 277.88025 73
497157.91 5419335.5715 277.34025 93
497157.021 5419336.2585 276.89025 84
497158.1 5419334.5195 278.02025 77
497157.031 5419335.8095 277.14025 80
497158.115 5419334.5375 278.02325 4
497158.154 5419335.0195 277.68625 59
497158.06 5419336.0085 277.06025 87
497156.86 5419335.7005 277.25025 105
497157.891 5419336.2005 276.94025 101
497158.267 5419336.4745 276.76825 70
497158.23 5419335.9975 277.07925 65
497158.071 5419335.5805 277.35025 88
497158.091 5419334.7305 277.90025 71
497157.032 5419334.8095 277.78125 55
497156.86 5419335.9005 277.11025 89
497157.031 5419336.0315 277.00025 85
497158.071 5419335.3705 277.48025 84
497158.191 5419335.5085 277.40125 64
497156.841 5419336.5405 276.71025 97
497158.05 5419336.4505 276.78025 85
497157.901 5419335.7695 277.22025 91
497156.891 5419334.6395 277.88025 99
497156.881 5419335.2585 277.48025 109
497157.458 5419334.5595 277.99025 25
497157.91 5419335.3605 277.49025 89
497157.495 5419335.0145 277.68725 84
497156.901 5419334.4505 278.02025 98
497158.06 5419335.7985 277.21025 80
497157.599 5419336.4065 276.82225 84
497156.996 5419334.3385 278.06425 53
497156.409 5419336.4465 276.73525 80
497156.891 5419334.8495 277.76025 99
497158.091 5419334.9405 277.75025 84
497157.06 5419334.7415 277.84025 78
497156.85 5419336.3215 276.81025 100
497157.069 5419335.2865 277.47625 55
497157.92 5419335.1505 277.62025 94
497157.531 5419335.4845 277.38025 90
497157.071 5419334.5315 277.99025 68
497157.881 5419336.3895 276.78025 99
497157.04 5419335.5995 277.29025 83
497157.05 5419335.1785 277.57025 79
497157.566 5419335.9515 277.10625 80
497157.104 5419335.7475 277.18725 53
497157.92 5419334.9285 277.74025 91
497156.87 5419335.4685 277.36025 100
497158.05 5419336.2305 276.93025 93
497156.881 5419335.0595 277.62025 101
497157.06 5419334.9505 277.68025 86
497156.85 5419336.0995 276.96025 100
497158.081 5419335.1605 277.63025 85
497157.941 5419334.5405 278.06025 33
497160.251 5419332.8895 279.14025 113
497160.273 5419332.4515 279.43025 84
497160.081 5419333.0805 279.04025 92
497159.06 5419332.5315 279.32025 79
497159.22 5419333.1605 278.93025 85
497159.22 5419332.9505 279.06025 90
497160.11 5419332.2815 279.52025 75
497160.091 5419332.8705 279.14025 91
497160.24 5419333.2985 278.88025 112
497159.626 5419332.9205 279.09825 76
497159.23 5419332.7415 279.17025 90
497160.311 5419332.9285 279.12425 82
497160.24 5419333.0995 279.00025 111
497159.24 5419332.3495 279.46025 111
497159.06 5419332.7305 279.17025 85
497159.137 5419332.7535 279.17125 57
497159.05 5419332.9285 279.07025 78
497159.04 5419333.3385 278.82025 80
497160.251 5419332.6785 279.26025 109
497160.271 5419332.2815 279.52025 90
497159.04 5419333.1395 278.96025 81
497159.591 5419332.4405 279.39225 90
497160.261 5419332.4805 279.39025 119
497160.347 5419333.3895 278.82725 88
497160.071 5419333.2695 278.90025 86
497159.663 5419333.3835 278.79625 84
497160.1 5419332.4605 279.39025 101
497159.175 5419333.2365 278.83925 56
497159.071 5419332.3495 279.48025 91
497160.071 5419333.4805 278.78025 88
497160.091 5419332.6705 279.27025 93
497159.23 5419332.5405 279.31025 86
497159.097 5419332.2755 279.51425 46
497159.211 5419333.3605 278.80025 90
497160.23 5419333.5085 278.74025 111
497156.941 5419333.0315 278.92025 98
497158.151 5419332.6285 279.17025 100
497157.11 5419333.0715 278.91025 83
497158.001 5419332.4915 279.29025 101
497158.151 5419332.4285 279.32025 97
497157.11 5419332.8605 279.03025 81
497158.141 5419332.8495 279.08025 90
497157.98 5419333.0995 278.93025 96
497156.951 5419332.6205 279.18025 98
497157.1 5419333.2815 278.78025 83
497157.131 5419332.2505 279.43025 78
497156.961 5419332.2415 279.45025 89
497156.845 5419332.4575 279.28825 53
497158.002 5419333.0885 278.92225 66
497157.12 5419332.4505 279.29025 80
497157.97 5419333.2985 278.78025 109
497157.964 5419332.6025 279.22125 69
497156.941 5419333.2185 278.79025 107
497156.951 5419332.8215 279.04025 100
497156.882 5419332.9235 278.97325 54
497157.12 5419332.6505 279.16025 82
497158.141 5419333.0595 278.94025 91
497158.464 5419332.3495 279.40925 87
497158.16 5419332.2505 279.50025 80
497157.926 5419332.1165 279.52625 84
497158.131 5419333.2585 278.82025 86
497157.352 5419333.1735 278.86025 94
497157.316 5419332.7015 279.16825 91
497158.001 5419332.2985 279.43025 84
497157.99 5419332.6905 279.16025 106
497156.961 5419332.4205 279.30025 111
497158.538 5419333.2865 278.78625 78
497157.278 5419332.2345 279.48925 80
497157.99 5419332.9005 279.06025 94
497158.5 5419332.8125 279.12525 82
497156.807 5419331.5995 279.17325 84
497157.912 5419331.3025 278.96625 96
497156.796 5419331.1905 278.96125 73
497158.031 5419331.0715 278.78025 90
497158.43 5419331.1445 278.86425 108
497157.258 5419331.4435 279.08125 121
497158.16 5419331.9285 279.32025 71
497157.252 5419331.0525 278.80825 122
497156.98 5419331.6285 279.17025 83
497157.92 5419331.7175 279.23525 92
497158.17 5419331.5885 279.10025 73
497157.141 5419331.3215 278.96025 69
497158.021 5419331.3895 278.97025 83
497157.901 5419330.8835 278.72825 91
497157.141 5419331.6505 279.18025 65
497158.18 5419331.2505 278.86025 69
497156.98 5419331.3095 278.96025 85
497157.131 5419331.9915 279.41025 60
497158.011 5419332.0485 279.40025 67
